ply
format ascii 1.0
comment created by ADONIS
element vertex 725
property float x
property float y
property float z
property float theta
property int segment
property float ra
property float rb
property float ha
property float hb
property int group
property int actual
property float c0
element face 0
property list int int vertex_indices
end_header 
1.17128 92.9208 0.753819 0.0252277 759 0.005 0.005 0.005 0.005 0 1 1
1.29672 92.453 0.167195 0.0902533 759 0.005 0.005 0.005 0.005 0 1 1
1.3491 91.8628 -0.309938 0.0990712 759 0.005 0.005 0.005 0.005 0 1 1
1.38321 91.2051 -0.690525 0.013919 759 0.005 0.005 0.005 0.005 0 1 1
1.46311 90.5132 -0.996445 -0.0149559 759 0.005 0.005 0.005 0.005 0 1 1
1.55055 89.8091 -1.27114 0.0648792 759 0.005 0.005 0.005 0.005 0 1 1
1.57611 89.0961 -1.53407 0.161971 759 0.005 0.005 0.005 0.005 0 1 1
1.52668 88.3752 -1.77123 0.138653 759 0.005 0.005 0.005 0.005 0 1 1
1.48608 87.6542 -2.01013 0.0446759 759 0.005 0.005 0.005 0.005 0 1 1
1.51261 86.951 -2.29915 0.0362882 759 0.005 0.005 0.005 0.005 0 1 1
1.54869 86.2587 -2.61201 0.113949 759 0.005 0.005 0.005 0.005 0 1 1
1.5246 85.5629 -2.91779 0.0974127 759 0.005 0.005 0.005 0.005 0 1 1
1.51559 84.8854 -3.26328 0.0569308 759 0.005 0.005 0.005 0.005 0 1 1
1.55231 84.2604 -3.69551 0.0903008 759 0.005 0.005 0.005 0.005 0 1 1
1.5629 83.6892 -4.19761 0.101663 759 0.005 0.005 0.005 0.005 0 1 1
1.56035 83.1585 -4.74259 0.0633425 759 0.005 0.005 0.005 0.005 0 1 1
1.61424 82.662 -5.31633 0.082555 759 0.005 0.005 0.005 0.005 0 1 1
1.64396 82.2124 -5.92885 0.105739 759 0.005 0.005 0.005 0.005 0 1 1
1.61109 81.8229 -6.58149 0.0889335 759 0.005 0.005 0.005 0.005 0 1 1
1.6009 81.4716 -7.25591 0.0666573 759 0.005 0.005 0.005 0.005 0 1 1
1.67075 81.1567 -7.94472 0.0617237 759 0.005 0.005 0.005 0.005 0 1 1
1.73935 80.8953 -8.65569 0.0558844 759 0.005 0.005 0.005 0.005 0 1 1
1.79527 80.6408 -9.37042 0.0474319 759 0.005 0.005 0.005 0.005 0 1 1
1.88482 80.3356 -10.0614 0.0483437 759 0.005 0.005 0.005 0.005 0 1 1
1.96863 79.9655 -10.7203 0.0589522 759 0.005 0.005 0.005 0.005 0 1 1
1.99686 79.5533 -11.359 0.0471427 759 0.005 0.005 0.005 0.005 0 1 1
2.07706 79.1237 -11.9812 0.0299232 759 0.005 0.005 0.005 0.005 0 1 1
2.20887 78.6801 -12.5851 0.0402963 759 0.005 0.005 0.005 0.005 0 1 1
2.29943 78.2016 -13.1692 0.0542469 759 0.005 0.005 0.005 0.005 0 1 1
2.35995 77.6915 -13.7303 0.041 759 0.005 0.005 0.005 0.005 0 1 1
2.46881 77.1595 -14.2628 0.0361348 759 0.005 0.005 0.005 0.005 0 1 1
2.58827 76.6182 -14.7838 0.0492147 759 0.005 0.005 0.005 0.005 0 1 1
2.66198 76.0769 -15.3131 0.0522941 759 0.005 0.005 0.005 0.005 0 1 1
2.72204 75.5401 -15.8489 0.048094 759 0.005 0.005 0.005 0.005 0 1 1
2.80665 74.9949 -16.3725 0 759 0.005 0.005 0.005 0.005 0 1 1
2.8072 74.9913 -16.3759 0 759 0 0 0 0 0 0 1
2.8072 74.9913 -16.3759 0 759 0 0 0 0 0 0 1
-0.343318 91.4234 2.04699 0 760 0 0 0 0 0 0 1
-0.343318 91.4234 2.04699 0 760 0 0 0 0 0 0 1
-0.343137 91.4232 2.042 -0.0196312 760 0.005 0.005 0.005 0.005 0 1 1
-0.316092 91.3876 1.29737 -0.0329503 760 0.005 0.005 0.005 0.005 0 1 1
-0.324223 91.0842 0.61639 -0.00720076 760 0.005 0.005 0.005 0.005 0 1 1
-0.365575 90.6631 0.00225767 -0.0276276 760 0.005 0.005 0.005 0.005 0 1 1
-0.377813 90.1495 -0.538637 -0.05502 760 0.005 0.005 0.005 0.005 0 1 1
-0.36471 89.56 -0.995533 -0.0489439 760 0.005 0.005 0.005 0.005 0 1 1
-0.354279 88.9043 -1.34975 -0.0201344 760 0.005 0.005 0.005 0.005 0 1 1
-0.362275 88.2045 -1.60773 -0.0279815 760 0.005 0.005 0.005 0.005 0 1 1
-0.365121 87.4969 -1.84394 -0.0701934 760 0.005 0.005 0.005 0.005 0 1 1
-0.340023 86.7993 -2.10681 -0.0748674 760 0.005 0.005 0.005 0.005 0 1 1
-0.316947 86.1312 -2.43723 -0.0165481 760 0.005 0.005 0.005 0.005 0 1 1
-0.345901 85.4932 -2.82238 0.00526809 760 0.005 0.005 0.005 0.005 0 1 1
-0.398378 84.8629 -3.21753 -0.0495489 760 0.005 0.005 0.005 0.005 0 1 1
-0.402555 84.2344 -3.61856 -0.0938407 760 0.005 0.005 0.005 0.005 0 1 1
-0.356994 83.6356 -4.06114 -0.0840766 760 0.005 0.005 0.005 0.005 0 1 1
-0.31561 83.0886 -4.56659 -0.0424761 760 0.005 0.005 0.005 0.005 0 1 1
-0.331084 82.5905 -5.12142 -0.0362047 760 0.005 0.005 0.005 0.005 0 1 1
-0.367216 82.143 -5.71706 -0.0648956 760 0.005 0.005 0.005 0.005 0 1 1
-0.341303 81.7553 -6.35344 -0.0682915 760 0.005 0.005 0.005 0.005 0 1 1
-0.278106 81.4308 -7.02218 -0.0514531 760 0.005 0.005 0.005 0.005 0 1 1
-0.253897 81.1491 -7.71211 -0.0394793 760 0.005 0.005 0.005 0.005 0 1 1
-0.307896 80.8587 -8.39666 -0.0390871 760 0.005 0.005 0.005 0.005 0 1 1
-0.375529 80.5479 -9.07129 -0.0446859 760 0.005 0.005 0.005 0.005 0 1 1
-0.384545 80.2447 -9.7524 -0.0511526 760 0.005 0.005 0.005 0.005 0 1 1
-0.353183 79.9476 -10.4359 -0.0502106 760 0.005 0.005 0.005 0.005 0 1 1
-0.365665 79.5836 -11.086 -0.0481609 760 0.005 0.005 0.005 0.005 0 1 1
-0.408899 79.1543 -11.6943 -0.0618926 760 0.005 0.005 0.005 0.005 0 1 1
-0.403677 78.7174 -12.2986 -0.0690123 760 0.005 0.005 0.005 0.005 0 1 1
-0.400613 78.2698 -12.8953 -0.0621634 760 0.005 0.005 0.005 0.005 0 1 1
-0.442483 77.8007 -13.4737 -0.0765304 760 0.005 0.005 0.005 0.005 0 1 1
-0.459171 77.3223 -14.0454 -0.0886599 760 0.005 0.005 0.005 0.005 0 1 1
-0.444443 76.8557 -14.6271 -0.0856737 760 0.005 0.005 0.005 0.005 0 1 1
-0.485315 76.4193 -15.2304 -0.0958239 760 0.005 0.005 0.005 0.005 0 1 1
-0.560803 76.0271 -15.8604 -0.101706 760 0.005 0.005 0.005 0.005 0 1 1
-0.590884 75.6833 -16.5214 -0.0904232 760 0.005 0.005 0.005 0.005 0 1 1
-0.578153 75.4247 -17.2208 -0.094393 760 0.005 0.005 0.005 0.005 0 1 1
-0.593555 75.2524 -17.9464 -0.0909774 760 0.005 0.005 0.005 0.005 0 1 1
-0.602518 75.1242 -18.6811 -0.0761746 760 0.005 0.005 0.005 0.005 0 1 1
-0.578662 74.996 -19.4155 0 760 0.005 0.005 0.005 0.005 0 1 1
-0.578503 74.9951 -19.4204 0 760 0 0 0 0 0 0 1
-0.578503 74.9951 -19.4204 0 760 0 0 0 0 0 0 1
4.56807 88.5204 4.83774 0 761 0 0 0 0 0 0 1
4.56807 88.5204 4.83774 0 761 0 0 0 0 0 0 1
4.57215 88.5202 4.83486 0.00535156 761 0.005 0.005 0.005 0.005 0 1 1
5.18113 88.4824 4.40489 0.0344011 761 0.005 0.005 0.005 0.005 0 1 1
5.75091 88.1914 4.01984 0.0886846 761 0.005 0.005 0.005 0.005 0 1 1
6.26197 87.7746 3.66946 0.133977 761 0.005 0.005 0.005 0.005 0 1 1
6.71322 87.261 3.36933 0.176863 761 0.005 0.005 0.005 0.005 0 1 1
7.10028 86.6764 3.11253 0.232588 761 0.005 0.005 0.005 0.005 0 1 1
7.44724 86.0665 2.85721 0.235634 761 0.005 0.005 0.005 0.005 0 1 1
7.81437 85.4644 2.6121 0.248048 761 0.005 0.005 0.005 0.005 0 1 1
8.18864 84.8671 2.36592 0.359355 761 0.005 0.005 0.005 0.005 0 1 1
8.48845 84.2585 2.0564 0.440918 761 0.005 0.005 0.005 0.005 0 1 1
8.73 83.6527 1.69288 0.411358 761 0.005 0.005 0.005 0.005 0 1 1
9.02336 83.062 1.34389 0.372295 761 0.005 0.005 0.005 0.005 0 1 1
9.41936 82.5273 1.00567 0.416406 761 0.005 0.005 0.005 0.005 0 1 1
9.85375 82.0673 0.609736 0.459483 761 0.005 0.005 0.005 0.005 0 1 1
10.2747 81.6324 0.172909 0.472531 761 0.005 0.005 0.005 0.005 0 1 1
10.6847 81.1909 -0.267935 0.509523 761 0.005 0.005 0.005 0.005 0 1 1
11.0925 80.8102 -0.763592 0.537587 761 0.005 0.005 0.005 0.005 0 1 1
11.5147 80.5424 -1.31785 0.540259 761 0.005 0.005 0.005 0.005 0 1 1
11.9678 80.3246 -1.86961 0.545774 761 0.005 0.005 0.005 0.005 0 1 1
12.4172 80.0588 -2.40278 0.557678 761 0.005 0.005 0.005 0.005 0 1 1
12.8229 79.7594 -2.95329 0.565937 761 0.005 0.005 0.005 0.005 0 1 1
13.1965 79.4478 -3.5198 0.56754 761 0.005 0.005 0.005 0.005 0 1 1
13.5679 79.1206 -4.07832 0.556151 761 0.005 0.005 0.005 0.005 0 1 1
13.9641 78.8068 -4.62716 0.54974 761 0.005 0.005 0.005 0.005 0 1 1
14.354 78.4685 -5.16673 0.548313 761 0.005 0.005 0.005 0.005 0 1 1
14.7249 78.0527 -5.66355 0.576016 761 0.005 0.005 0.005 0.005 0 1 1
15.0437 77.5573 -6.12134 0.632916 761 0.005 0.005 0.005 0.005 0 1 1
15.2937 77.0377 -6.59519 0.657401 761 0.005 0.005 0.005 0.005 0 1 1
15.541 76.5545 -7.10784 0.65382 761 0.005 0.005 0.005 0.005 0 1 1
15.8395 76.1198 -7.6363 0.643217 761 0.005 0.005 0.005 0.005 0 1 1
16.2203 75.7574 -8.16632 0.658135 761 0.005 0.005 0.005 0.005 0 1 1
16.6464 75.4773 -8.71165 0.693882 761 0.005 0.005 0.005 0.005 0 1 1
17.0529 75.2636 -9.30004 0.712622 761 0.005 0.005 0.005 0.005 0 1 1
17.4241 75.1106 -9.92943 0.714384 761 0.005 0.005 0.005 0.005 0 1 1
17.7914 75.025 -10.5738 0.711676 761 0.005 0.005 0.005 0.005 0 1 1
18.1631 74.996 -11.2208 0.700827 761 0.005 0.005 0.005 0.005 0 1 1
18.5174 74.996 -11.878 0 761 0.005 0.005 0.005 0.005 0 1 1
18.5197 74.996 -11.8824 0 761 0 0 0 0 0 0 1
18.5197 74.996 -11.8824 0 761 0 0 0 0 0 0 1
-0.464033 100.932 6.79468 0 762 0 0 0 0 0 0 1
-0.464033 100.932 6.79468 0 762 0 0 0 0 0 0 1
-0.464254 100.936 6.79226 0.00486051 762 0.005 0.005 0.005 0.005 0 1 1
-0.49753 101.593 6.42899 -0.00360185 762 0.005 0.005 0.005 0.005 0 1 1
-0.537795 101.902 5.74448 -0.00867906 762 0.005 0.005 0.005 0.005 0 1 1
-0.587664 101.828 4.99792 0.0403272 762 0.005 0.005 0.005 0.005 0 1 1
-0.656268 101.427 4.36644 0.0482504 762 0.005 0.005 0.005 0.005 0 1 1
-0.711782 100.83 3.91219 -0.0655041 762 0.005 0.005 0.005 0.005 0 1 1
-0.713167 100.158 3.57561 -0.0571265 762 0.005 0.005 0.005 0.005 0 1 1
-0.716634 99.4743 3.26353 0.0927085 762 0.005 0.005 0.005 0.005 0 1 1
-0.771056 98.7809 2.97786 0.162966 762 0.005 0.005 0.005 0.005 0 1 1
-0.846602 98.0692 2.74755 0.046002 762 0.005 0.005 0.005 0.005 0 1 1
-0.879889 97.3335 2.60061 -0.158698 762 0.005 0.005 0.005 0.005 0 1 1
-0.842811 96.5872 2.51717 -0.162301 762 0.005 0.005 0.005 0.005 0 1 1
-0.806458 95.8411 2.43093 0.0205438 762 0.005 0.005 0.005 0.005 0 1 1
-0.83609 95.0952 2.34367 0.0957094 762 0.005 0.005 0.005 0.005 0 1 1
-0.89508 94.3513 2.2512 -0.121895 762 0.005 0.005 0.005 0.005 0 1 1
-0.878407 93.6048 2.16715 -0.253482 762 0.005 0.005 0.005 0.005 0 1 1
-0.814319 92.8584 2.102 -0.149655 762 0.005 0.005 0.005 0.005 0 1 1
-0.787491 92.1087 2.05609 0.0927029 762 0.005 0.005 0.005 0.005 0 1 1
-0.848465 91.3599 2.03854 0.144882 762 0.005 0.005 0.005 0.005 0 1 1
-0.92719 90.6123 2.04883 -0.0792678 762 0.005 0.005 0.005 0.005 0 1 1
-0.92283 89.8616 2.08264 -0.214357 762 0.005 0.005 0.005 0.005 0 1 1
-0.868124 89.113 2.12728 -0.0432358 762 0.005 0.005 0.005 0.005 0 1 1
-0.875001 88.3634 2.17745 0.0679499 762 0.005 0.005 0.005 0.005 0 1 1
-0.920879 87.6166 2.24967 0 762 0.005 0.005 0.005 0.005 0 1 1
-0.921184 87.6117 2.25015 0 762 0 0 0 0 0 0 1
-0.921184 87.6117 2.25015 0 762 0 0 0 0 0 0 1
0.339248 93.5095 2.20301 0 763 0 0 0 0 0 0 1
0.339248 93.5095 2.20301 0 763 0 0 0 0 0 0 1
0.339827 93.5107 2.19819 -0.0221762 763 0.005 0.005 0.005 0.005 0 1 1
0.427639 93.6891 1.46678 -0.02418 763 0.005 0.005 0.005 0.005 0 1 1
0.453813 93.4448 0.75001 0.0183273 763 0.005 0.005 0.005 0.005 0 1 1
0.440167 92.943 0.181301 0.00855113 763 0.005 0.005 0.005 0.005 0 1 1
0.448141 92.3375 -0.27495 -0.0345704 763 0.005 0.005 0.005 0.005 0 1 1
0.494528 91.7158 -0.706371 0.00773146 763 0.005 0.005 0.005 0.005 0 1 1
0.513683 91.0787 -1.11738 0.0234832 763 0.005 0.005 0.005 0.005 0 1 1
0.521017 90.4064 -1.46819 -0.0123829 763 0.005 0.005 0.005 0.005 0 1 1
0.548815 89.7037 -1.75181 0.0311323 763 0.005 0.005 0.005 0.005 0 1 1
0.549972 88.9987 -2.03134 0.0981317 763 0.005 0.005 0.005 0.005 0 1 1
0.512033 88.315 -2.35751 0.116388 763 0.005 0.005 0.005 0.005 0 1 1
0.467093 87.6493 -2.71834 0.0463844 763 0.005 0.005 0.005 0.005 0 1 1
0.474072 86.9686 -3.05023 -0.0156494 763 0.005 0.005 0.005 0.005 0 1 1
0.528584 86.266 -3.33043 0.0128607 763 0.005 0.005 0.005 0.005 0 1 1
0.567701 85.567 -3.62213 0.0898709 763 0.005 0.005 0.005 0.005 0 1 1
0.555078 84.9098 -3.99897 0.119211 763 0.005 0.005 0.005 0.005 0 1 1
0.529048 84.3227 -4.47835 0.0897372 763 0.005 0.005 0.005 0.005 0 1 1
0.53675 83.7682 -4.99578 0.0785995 763 0.005 0.005 0.005 0.005 0 1 1
0.562905 83.2346 -5.53403 0.0951816 763 0.005 0.005 0.005 0.005 0 1 1
0.569619 82.6881 -6.05888 0.11416 763 0.005 0.005 0.005 0.005 0 1 1
0.54788 82.1392 -6.58176 0.108876 763 0.005 0.005 0.005 0.005 0 1 1
0.54161 81.6305 -7.14424 0.0987816 763 0.005 0.005 0.005 0.005 0 1 1
0.575171 81.1906 -7.76098 0.108917 763 0.005 0.005 0.005 0.005 0 1 1
0.607567 80.8529 -8.43907 0.121186 763 0.005 0.005 0.005 0.005 0 1 1
0.601343 80.5746 -9.14442 0.12009 763 0.005 0.005 0.005 0.005 0 1 1
0.594519 80.2727 -9.83972 0.112445 763 0.005 0.005 0.005 0.005 0 1 1
0.640368 79.9178 -10.5082 0.106147 763 0.005 0.005 0.005 0.005 0 1 1
0.717746 79.5329 -11.1572 0.110266 763 0.005 0.005 0.005 0.005 0 1 1
0.770404 79.1277 -11.796 0.126471 763 0.005 0.005 0.005 0.005 0 1 1
0.766415 78.692 -12.4167 0.121299 763 0.005 0.005 0.005 0.005 0 1 1
0.782877 78.2178 -13.008 0.0955433 763 0.005 0.005 0.005 0.005 0 1 1
0.860586 77.7148 -13.5702 0.0904619 763 0.005 0.005 0.005 0.005 0 1 1
0.935942 77.1996 -14.1217 0.118269 763 0.005 0.005 0.005 0.005 0 1 1
0.934824 76.6692 -14.6629 0.14704 763 0.005 0.005 0.005 0.005 0 1 1
0.863837 76.1118 -15.1722 0.13472 763 0.005 0.005 0.005 0.005 0 1 1
0.8191 75.546 -15.6747 0.101478 763 0.005 0.005 0.005 0.005 0 1 1
0.845308 74.996 -16.1962 0 763 0.005 0.005 0.005 0.005 0 1 1
0.845481 74.9924 -16.1997 0 763 0 0 0 0 0 0 1
0.845481 74.9924 -16.1997 0 763 0 0 0 0 0 0 1
2.32377 90.9081 2.53686 0 764 0 0 0 0 0 0 1
2.32377 90.9081 2.53686 0 764 0 0 0 0 0 0 1
2.32561 90.9082 2.53222 0.014539 764 0.005 0.005 0.005 0.005 0 1 1
2.60546 90.9341 1.82435 0.0474793 764 0.005 0.005 0.005 0.005 0 1 1
2.8844 90.6534 1.17351 0.0704147 764 0.005 0.005 0.005 0.005 0 1 1
3.14493 90.1947 0.623834 0.106044 764 0.005 0.005 0.005 0.005 0 1 1
3.36539 89.6468 0.142738 0.178364 764 0.005 0.005 0.005 0.005 0 1 1
3.51574 89.0444 -0.298449 0.218558 764 0.005 0.005 0.005 0.005 0 1 1
3.63254 88.4088 -0.701721 0.191472 764 0.005 0.005 0.005 0.005 0 1 1
3.77567 87.7544 -1.06442 0.197604 764 0.005 0.005 0.005 0.005 0 1 1
3.92761 87.0999 -1.42343 0.268938 764 0.005 0.005 0.005 0.005 0 1 1
4.03895 86.4558 -1.81386 0.361472 764 0.005 0.005 0.005 0.005 0 1 1
4.07513 85.8191 -2.22994 0.386885 764 0.005 0.005 0.005 0.005 0 1 1
4.09894 85.1952 -2.66635 0.363639 764 0.005 0.005 0.005 0.005 0 1 1
4.18828 84.6083 -3.14345 0.373293 764 0.005 0.005 0.005 0.005 0 1 1
4.30469 84.0528 -3.65134 0.427003 764 0.005 0.005 0.005 0.005 0 1 1
4.36983 83.5087 -4.17975 0.450444 764 0.005 0.005 0.005 0.005 0 1 1
4.4362 82.9983 -4.74124 0.462032 764 0.005 0.005 0.005 0.005 0 1 1
4.56516 82.5653 -5.35441 0.494571 764 0.005 0.005 0.005 0.005 0 1 1
4.7061 82.2109 -6.01377 0.517499 764 0.005 0.005 0.005 0.005 0 1 1
4.84015 81.8926 -6.69257 0.519307 764 0.005 0.005 0.005 0.005 0 1 1
5.01634 81.565 -7.35717 0.539533 764 0.005 0.005 0.005 0.005 0 1 1
5.18011 81.2606 -8.03555 0.559388 764 0.005 0.005 0.005 0.005 0 1 1
5.29266 80.9992 -8.74195 0.569755 764 0.005 0.005 0.005 0.005 0 1 1
5.41363 80.7041 -9.43345 0.568242 764 0.005 0.005 0.005 0.005 0 1 1
5.59692 80.3207 -10.0655 0.569488 764 0.005 0.005 0.005 0.005 0 1 1
5.7983 79.9272 -10.6854 0.580504 764 0.005 0.005 0.005 0.005 0 1 1
5.98731 79.5319 -11.3086 0.592286 764 0.005 0.005 0.005 0.005 0 1 1
6.18493 79.0867 -11.8941 0.623366 764 0.005 0.005 0.005 0.005 0 1 1
6.35807 78.5839 -12.4392 0.664924 764 0.005 0.005 0.005 0.005 0 1 1
6.47434 78.0622 -12.9817 0.66905 764 0.005 0.005 0.005 0.005 0 1 1
6.60671 77.5361 -13.5161 0.660959 764 0.005 0.005 0.005 0.005 0 1 1
6.77595 77.0259 -14.0558 0.675703 764 0.005 0.005 0.005 0.005 0 1 1
6.92003 76.5749 -14.6522 0.690274 764 0.005 0.005 0.005 0.005 0 1 1
7.03257 76.1813 -15.2945 0.707996 764 0.005 0.005 0.005 0.005 0 1 1
7.16264 75.8074 -15.945 0.720512 764 0.005 0.005 0.005 0.005 0 1 1
7.29988 75.4934 -16.6252 0.71017 764 0.005 0.005 0.005 0.005 0 1 1
7.40516 75.2999 -17.3542 0.706187 764 0.005 0.005 0.005 0.005 0 1 1
7.50077 75.189 -18.1017 0.724251 764 0.005 0.005 0.005 0.005 0 1 1
7.60296 75.092 -18.8501 0.726894 764 0.005 0.005 0.005 0.005 0 1 1
7.68714 74.996 -19.6011 0 764 0.005 0.005 0.005 0.005 0 1 1
7.68769 74.9954 -19.606 0 764 0 0 0 0 0 0 1
7.68769 74.9954 -19.606 0 764 0 0 0 0 0 0 1
4.94938 91.8079 4.66611 0 765 0 0 0 0 0 0 1
4.94938 91.8079 4.66611 0 765 0 0 0 0 0 0 1
4.95337 91.8074 4.66314 0.00545203 765 0.005 0.005 0.005 0.005 0 1 1
5.55598 91.7407 4.21507 0.0602457 765 0.005 0.005 0.005 0.005 0 1 1
6.04958 91.3455 3.80364 0.0711674 765 0.005 0.005 0.005 0.005 0 1 1
6.49937 90.8149 3.51301 0.0967864 765 0.005 0.005 0.005 0.005 0 1 1
6.90708 90.2292 3.26873 0.17911 765 0.005 0.005 0.005 0.005 0 1 1
7.22754 89.5861 3.03912 0.189132 765 0.005 0.005 0.005 0.005 0 1 1
7.47056 88.889 2.88504 0.229161 765 0.005 0.005 0.005 0.005 0 1 1
7.65807 88.1695 2.75813 0.33354 765 0.005 0.005 0.005 0.005 0 1 1
7.83482 87.4618 2.56687 0.362673 765 0.005 0.005 0.005 0.005 0 1 1
8.03785 86.7695 2.34641 0.313724 765 0.005 0.005 0.005 0.005 0 1 1
8.24968 86.0653 2.18039 0.332827 765 0.005 0.005 0.005 0.005 0 1 1
8.4222 85.3443 2.04146 0.386645 765 0.005 0.005 0.005 0.005 0 1 1
8.57969 84.6263 1.87153 0.403892 765 0.005 0.005 0.005 0.005 0 1 1
8.76786 83.9252 1.66643 0.407831 765 0.005 0.005 0.005 0.005 0 1 1
9.04737 83.2819 1.39059 0.423619 765 0.005 0.005 0.005 0.005 0 1 1
9.39894 82.7148 1.03867 0.427359 765 0.005 0.005 0.005 0.005 0 1 1
9.78358 82.1884 0.659149 0.436666 765 0.005 0.005 0.005 0.005 0 1 1
10.1702 81.6689 0.273161 0.478137 765 0.005 0.005 0.005 0.005 0 1 1
10.5181 81.1578 -0.158435 0.500411 765 0.005 0.005 0.005 0.005 0 1 1
10.8629 80.7125 -0.660307 0.492185 765 0.005 0.005 0.005 0.005 0 1 1
11.2485 80.3445 -1.19404 0.476606 765 0.005 0.005 0.005 0.005 0 1 1
11.7009 80.0627 -1.72768 0.46975 765 0.005 0.005 0.005 0.005 0 1 1
12.1914 79.8543 -2.26163 0.472904 765 0.005 0.005 0.005 0.005 0 1 1
12.6569 79.664 -2.82366 0.473093 765 0.005 0.005 0.005 0.005 0 1 1
13.0757 79.4441 -3.41113 0.467137 765 0.005 0.005 0.005 0.005 0 1 1
13.4756 79.1802 -3.99388 0.457703 765 0.005 0.005 0.005 0.005 0 1 1
13.8763 78.875 -4.55555 0.455358 765 0.005 0.005 0.005 0.005 0 1 1
14.2595 78.5176 -5.09816 0.457063 765 0.005 0.005 0.005 0.005 0 1 1
14.6305 78.1007 -5.60576 0.452153 765 0.005 0.005 0.005 0.005 0 1 1
15.0167 77.6515 -6.07295 0.445022 765 0.005 0.005 0.005 0.005 0 1 1
15.4194 77.2053 -6.52876 0.442203 765 0.005 0.005 0.005 0.005 0 1 1
15.8257 76.7832 -7.00392 0.464541 765 0.005 0.005 0.005 0.005 0 1 1
16.2019 76.372 -7.51192 0.486627 765 0.005 0.005 0.005 0.005 0 1 1
16.5612 75.9684 -8.03825 0.470709 765 0.005 0.005 0.005 0.005 0 1 1
16.9667 75.6289 -8.57597 0.472634 765 0.005 0.005 0.005 0.005 0 1 1
17.3997 75.3281 -9.11557 0.507441 765 0.005 0.005 0.005 0.005 0 1 1
17.8077 74.996 -9.65589 0 765 0.005 0.005 0.005 0.005 0 1 1
17.8104 74.9938 -9.65947 0 765 0 0 0 0 0 0 1
17.8104 74.9938 -9.65947 0 765 0 0 0 0 0 0 1
4.21374 90.4987 3.99082 0 766 0 0 0 0 0 0 1
4.21374 90.4987 3.99082 0 766 0 0 0 0 0 0 1
4.21744 90.4983 3.98748 0.00819118 766 0.005 0.005 0.005 0.005 0 1 1
4.77167 90.4385 3.48589 0.0337967 766 0.005 0.005 0.005 0.005 0 1 1
5.26573 90.1113 3.02618 0.0761564 766 0.005 0.005 0.005 0.005 0 1 1
5.68216 89.638 2.6199 0.136503 766 0.005 0.005 0.005 0.005 0 1 1
6.01729 89.0756 2.25406 0.163874 766 0.005 0.005 0.005 0.005 0 1 1
6.3142 88.4642 1.93708 0.172279 766 0.005 0.005 0.005 0.005 0 1 1
6.60508 87.8324 1.65643 0.208443 766 0.005 0.005 0.005 0.005 0 1 1
6.8883 87.1969 1.37636 0.274474 766 0.005 0.005 0.005 0.005 0 1 1
7.14559 86.5607 1.07428 0.343064 766 0.005 0.005 0.005 0.005 0 1 1
7.35493 85.9136 0.758812 0.368075 766 0.005 0.005 0.005 0.005 0 1 1
7.57449 85.2757 0.431407 0.370007 766 0.005 0.005 0.005 0.005 0 1 1
7.85597 84.6759 0.0800199 0.383195 766 0.005 0.005 0.005 0.005 0 1 1
8.15814 84.0904 -0.277937 0.419159 766 0.005 0.005 0.005 0.005 0 1 1
8.42776 83.4906 -0.637539 0.444714 766 0.005 0.005 0.005 0.005 0 1 1
8.71457 82.9161 -1.02469 0.463144 766 0.005 0.005 0.005 0.005 0 1 1
9.06151 82.4142 -1.46057 0.48923 766 0.005 0.005 0.005 0.005 0 1 1
9.43319 81.9719 -1.93872 0.506299 766 0.005 0.005 0.005 0.005 0 1 1
9.81189 81.5513 -2.43052 0.507773 766 0.005 0.005 0.005 0.005 0 1 1
10.2161 81.1363 -2.90676 0.538743 766 0.005 0.005 0.005 0.005 0 1 1
10.6104 80.7651 -3.42502 0.567323 766 0.005 0.005 0.005 0.005 0 1 1
10.9685 80.4601 -4.00876 0.573988 766 0.005 0.005 0.005 0.005 0 1 1
11.3281 80.1518 -4.58976 0.568703 766 0.005 0.005 0.005 0.005 0 1 1
11.7243 79.7964 -5.11796 0.570637 766 0.005 0.005 0.005 0.005 0 1 1
12.1255 79.4518 -5.64899 0.583534 766 0.005 0.005 0.005 0.005 0 1 1
12.5003 79.1265 -6.21111 0.596519 766 0.005 0.005 0.005 0.005 0 1 1
12.8601 78.7621 -6.75886 0.616083 766 0.005 0.005 0.005 0.005 0 1 1
13.1886 78.3258 -7.27246 0.646424 766 0.005 0.005 0.005 0.005 0 1 1
13.4684 77.8395 -7.76989 0.659633 766 0.005 0.005 0.005 0.005 0 1 1
13.7445 77.3354 -8.25145 0.660575 766 0.005 0.005 0.005 0.005 0 1 1
14.0474 76.8542 -8.74013 0.677968 766 0.005 0.005 0.005 0.005 0 1 1
14.3473 76.4308 -9.28124 0.697558 766 0.005 0.005 0.005 0.005 0 1 1
14.6307 76.059 -9.8675 0.713809 766 0.005 0.005 0.005 0.005 0 1 1
14.9305 75.696 -10.4509 0.734013 766 0.005 0.005 0.005 0.005 0 1 1
15.2484 75.3827 -11.0533 0.743511 766 0.005 0.005 0.005 0.005 0 1 1
15.5519 75.1983 -11.7135 0.748206 766 0.005 0.005 0.005 0.005 0 1 1
15.8492 75.1116 -12.3964 0.775419 766 0.005 0.005 0.005 0.005 0 1 1
16.1622 75.0427 -13.0741 0.783196 766 0.005 0.005 0.005 0.005 0 1 1
16.4559 74.996 -13.7624 0.761823 766 0.005 0.005 0.005 0.005 0 1 1
16.7112 74.996 -14.4675 0 766 0.005 0.005 0.005 0.005 0 1 1
16.7129 74.996 -14.4722 0 766 0 0 0 0 0 0 1
16.7129 74.996 -14.4722 0 766 0 0 0 0 0 0 1
1.54363 91.1066 2.25574 0 767 0 0 0 0 0 0 1
1.54363 91.1066 2.25574 0 767 0 0 0 0 0 0 1
1.54485 91.1062 2.25091 0.0105697 767 0.005 0.005 0.005 0.005 0 1 1
1.72997 91.0399 1.51642 0.0221711 767 0.005 0.005 0.005 0.005 0 1 1
1.92251 90.8013 0.820495 0.054498 767 0.005 0.005 0.005 0.005 0 1 1
2.0655 90.3763 0.206037 0.0476476 767 0.005 0.005 0.005 0.005 0 1 1
2.19333 89.8028 -0.276955 0.0830559 767 0.005 0.005 0.005 0.005 0 1 1
2.27654 89.1658 -0.684298 0.166537 767 0.005 0.005 0.005 0.005 0 1 1
2.30472 88.5283 -1.09851 0.208404 767 0.005 0.005 0.005 0.005 0 1 1
2.31769 87.8952 -1.52036 0.173264 767 0.005 0.005 0.005 0.005 0 1 1
2.35979 87.234 -1.89251 0.138256 767 0.005 0.005 0.005 0.005 0 1 1
2.42025 86.5387 -2.19492 0.170374 767 0.005 0.005 0.005 0.005 0 1 1
2.46304 85.8416 -2.49673 0.237515 767 0.005 0.005 0.005 0.005 0 1 1
2.47941 85.1787 -2.86894 0.292711 767 0.005 0.005 0.005 0.005 0 1 1
2.49763 84.5964 -3.3577 0.2948 767 0.005 0.005 0.005 0.005 0 1 1
2.54747 84.0682 -3.90304 0.293747 767 0.005 0.005 0.005 0.005 0 1 1
2.6211 83.5653 -4.46911 0.316764 767 0.005 0.005 0.005 0.005 0 1 1
2.67367 83.0609 -5.03529 0.350079 767 0.005 0.005 0.005 0.005 0 1 1
2.68047 82.5651 -5.61208 0.363251 767 0.005 0.005 0.005 0.005 0 1 1
2.69288 82.1159 -6.22603 0.363055 767 0.005 0.005 0.005 0.005 0 1 1
2.76061 81.7272 -6.87652 0.368862 767 0.005 0.005 0.005 0.005 0 1 1
2.87847 81.4275 -7.56562 0.378867 767 0.005 0.005 0.005 0.005 0 1 1
2.98866 81.1935 -8.28091 0.386938 767 0.005 0.005 0.005 0.005 0 1 1
3.08063 80.9446 -8.99365 0.393512 767 0.005 0.005 0.005 0.005 0 1 1
3.18994 80.6304 -9.67774 0.39577 767 0.005 0.005 0.005 0.005 0 1 1
3.32688 80.2749 -10.3364 0.401232 767 0.005 0.005 0.005 0.005 0 1 1
3.45823 79.9029 -10.9868 0.419073 767 0.005 0.005 0.005 0.005 0 1 1
3.54549 79.5017 -11.6272 0.429195 767 0.005 0.005 0.005 0.005 0 1 1
3.63813 79.0549 -12.2357 0.421104 767 0.005 0.005 0.005 0.005 0 1 1
3.78227 78.5632 -12.7981 0.4233 767 0.005 0.005 0.005 0.005 0 1 1
3.93753 78.0528 -13.3404 0.452602 767 0.005 0.005 0.005 0.005 0 1 1
4.03902 77.5451 -13.8972 0.489461 767 0.005 0.005 0.005 0.005 0 1 1
4.0625 77.0461 -14.4708 0.490305 767 0.005 0.005 0.005 0.005 0 1 1
4.09642 76.5736 -15.0658 0.478294 767 0.005 0.005 0.005 0.005 0 1 1
4.20126 76.1598 -15.6955 0.4931 767 0.005 0.005 0.005 0.005 0 1 1
4.31011 75.7994 -16.3563 0.504478 767 0.005 0.005 0.005 0.005 0 1 1
4.34534 75.4809 -17.0459 0.50712 767 0.005 0.005 0.005 0.005 0 1 1
4.39175 75.2314 -17.7628 0.515634 767 0.005 0.005 0.005 0.005 0 1 1
4.48463 75.0867 -18.504 0.500076 767 0.005 0.005 0.005 0.005 0 1 1
4.55355 75.0279 -19.2592 0.484095 767 0.005 0.005 0.005 0.005 0 1 1
4.58804 74.996 -20.0185 0 767 0.005 0.005 0.005 0.005 0 1 1
4.58827 74.9958 -20.0235 0 767 0 0 0 0 0 0 1
4.58827 74.9958 -20.0235 0 767 0 0 0 0 0 0 1
2.47588 90.2493 2.66661 0 768 0 0 0 0 0 0 1
2.47588 90.2493 2.66661 0 768 0 0 0 0 0 0 1
2.4781 90.2492 2.66213 0.00187691 768 0.005 0.005 0.005 0.005 0 1 1
2.8117 90.2272 1.99165 0.0255989 768 0.005 0.005 0.005 0.005 0 1 1
3.09551 89.9753 1.34574 0.052826 768 0.005 0.005 0.005 0.005 0 1 1
3.33203 89.5357 0.787235 0.0623247 768 0.005 0.005 0.005 0.005 0 1 1
3.54387 88.9963 0.312263 0.0867331 768 0.005 0.005 0.005 0.005 0 1 1
3.73127 88.4164 -0.123617 0.14706 768 0.005 0.005 0.005 0.005 0 1 1
3.8707 87.8144 -0.547183 0.191661 768 0.005 0.005 0.005 0.005 0 1 1
3.98148 87.2003 -0.961709 0.169593 768 0.005 0.005 0.005 0.005 0 1 1
4.1259 86.581 -1.35774 0.16514 768 0.005 0.005 0.005 0.005 0 1 1
4.29858 85.9719 -1.75846 0.21373 768 0.005 0.005 0.005 0.005 0 1 1
4.45768 85.3853 -2.19616 0.29056 768 0.005 0.005 0.005 0.005 0 1 1
4.55853 84.8151 -2.67099 0.32459 768 0.005 0.005 0.005 0.005 0 1 1
4.6339 84.2596 -3.16803 0.309854 768 0.005 0.005 0.005 0.005 0 1 1
4.76594 83.7502 -3.70098 0.30394 768 0.005 0.005 0.005 0.005 0 1 1
4.94938 83.2911 -4.26395 0.333805 768 0.005 0.005 0.005 0.005 0 1 1
5.10984 82.8436 -4.84234 0.360314 768 0.005 0.005 0.005 0.005 0 1 1
5.24 82.4076 -5.4375 0.36325 768 0.005 0.005 0.005 0.005 0 1 1
5.41751 82.0377 -6.06417 0.374745 768 0.005 0.005 0.005 0.005 0 1 1
5.61545 81.7414 -6.72309 0.390079 768 0.005 0.005 0.005 0.005 0 1 1
5.79382 81.4772 -7.40103 0.394509 768 0.005 0.005 0.005 0.005 0 1 1
5.9899 81.1898 -8.06422 0.400284 768 0.005 0.005 0.005 0.005 0 1 1
6.19877 80.8763 -8.71167 0.421168 768 0.005 0.005 0.005 0.005 0 1 1
6.35046 80.5628 -9.37437 0.442837 768 0.005 0.005 0.005 0.005 0 1 1
6.46562 80.2186 -10.0298 0.448437 768 0.005 0.005 0.005 0.005 0 1 1
6.61849 79.8014 -10.6324 0.445241 768 0.005 0.005 0.005 0.005 0 1 1
6.81006 79.3452 -11.1948 0.469189 768 0.005 0.005 0.005 0.005 0 1 1
6.97874 78.9001 -11.773 0.488599 768 0.005 0.005 0.005 0.005 0 1 1
7.13649 78.4471 -12.3485 0.504085 768 0.005 0.005 0.005 0.005 0 1 1
7.29146 77.9538 -12.8904 0.539424 768 0.005 0.005 0.005 0.005 0 1 1
7.40495 77.4334 -13.4168 0.568048 768 0.005 0.005 0.005 0.005 0 1 1
7.48958 76.923 -13.9586 0.562855 768 0.005 0.005 0.005 0.005 0 1 1
7.62633 76.4374 -14.5123 0.571266 768 0.005 0.005 0.005 0.005 0 1 1
7.78286 76.0174 -15.1124 0.586276 768 0.005 0.005 0.005 0.005 0 1 1
7.9053 75.6862 -15.773 0.596459 768 0.005 0.005 0.005 0.005 0 1 1
8.02316 75.4137 -16.4606 0.618305 768 0.005 0.005 0.005 0.005 0 1 1
8.17563 75.1754 -17.1542 0.618143 768 0.005 0.005 0.005 0.005 0 1 1
8.31966 75.0305 -17.8747 0.59018 768 0.005 0.005 0.005 0.005 0 1 1
8.43039 74.996 -18.6149 0.591399 768 0.005 0.005 0.005 0.005 0 1 1
8.54509 75.0042 -19.355 0.615138 768 0.005 0.005 0.005 0.005 0 1 1
8.67396 74.996 -20.0929 0 768 0.005 0.005 0.005 0.005 0 1 1
8.67482 74.9959 -20.0978 0 768 0 0 0 0 0 0 1
8.67482 74.9959 -20.0978 0 768 0 0 0 0 0 0 1
2.3326 92.9311 2.54137 0 769 0 0 0 0 0 0 1
2.3326 92.9311 2.54137 0 769 0 0 0 0 0 0 1
2.33446 92.9314 2.53674 -0.00506077 769 0.005 0.005 0.005 0.005 0 1 1
2.61161 92.9822 1.84453 -0.00697066 769 0.005 0.005 0.005 0.005 0 1 1
2.90299 92.6758 1.22781 0.0363298 769 0.005 0.005 0.005 0.005 0 1 1
3.13424 92.2115 0.690324 0.0867558 769 0.005 0.005 0.005 0.005 0 1 1
3.32011 91.6876 0.190244 0.0889392 769 0.005 0.005 0.005 0.005 0 1 1
3.48501 91.0988 -0.240224 0.0792365 769 0.005 0.005 0.005 0.005 0 1 1
3.63127 90.457 -0.594627 0.104474 769 0.005 0.005 0.005 0.005 0 1 1
3.72654 89.7649 -0.859198 0.168984 769 0.005 0.005 0.005 0.005 0 1 1
3.75748 89.0488 -1.07165 0.182172 769 0.005 0.005 0.005 0.005 0 1 1
3.77874 88.3309 -1.28008 0.14984 769 0.005 0.005 0.005 0.005 0 1 1
3.83398 87.6236 -1.51591 0.149133 769 0.005 0.005 0.005 0.005 0 1 1
3.91415 86.9455 -1.82018 0.20582 769 0.005 0.005 0.005 0.005 0 1 1
3.96991 86.2933 -2.18119 0.234581 769 0.005 0.005 0.005 0.005 0 1 1
4.00152 85.6436 -2.54921 0.213389 769 0.005 0.005 0.005 0.005 0 1 1
4.04664 84.9924 -2.91379 0.200756 769 0.005 0.005 0.005 0.005 0 1 1
4.11947 84.3686 -3.31963 0.227853 769 0.005 0.005 0.005 0.005 0 1 1
4.19276 83.7965 -3.79536 0.27035 769 0.005 0.005 0.005 0.005 0 1 1
4.23779 83.2835 -4.33732 0.261009 769 0.005 0.005 0.005 0.005 0 1 1
4.30816 82.8198 -4.91939 0.235733 769 0.005 0.005 0.005 0.005 0 1 1
4.4416 82.4019 -5.52478 0.242903 769 0.005 0.005 0.005 0.005 0 1 1
4.59854 82.0476 -6.16423 0.26637 769 0.005 0.005 0.005 0.005 0 1 1
4.71831 81.7523 -6.84011 0.276984 769 0.005 0.005 0.005 0.005 0 1 1
4.78163 81.4747 -7.53121 0.268278 769 0.005 0.005 0.005 0.005 0 1 1
4.86343 81.1988 -8.22112 0.248712 769 0.005 0.005 0.005 0.005 0 1 1
5.02021 80.9427 -8.90583 0.23571 769 0.005 0.005 0.005 0.005 0 1 1
5.20086 80.6617 -9.57463 0.244747 769 0.005 0.005 0.005 0.005 0 1 1
5.33639 80.3036 -10.2164 0.244219 769 0.005 0.005 0.005 0.005 0 1 1
5.47809 79.8999 -10.8294 0.219742 769 0.005 0.005 0.005 0.005 0 1 1
5.66004 79.4867 -11.4253 0.20865 769 0.005 0.005 0.005 0.005 0 1 1
5.82565 79.0495 -12.0087 0.213818 769 0.005 0.005 0.005 0.005 0 1 1
5.9746 78.5755 -12.5673 0.211957 769 0.005 0.005 0.005 0.005 0 1 1
6.16167 78.0636 -13.0789 0.223284 769 0.005 0.005 0.005 0.005 0 1 1
6.32641 77.5372 -13.5831 0.232109 769 0.005 0.005 0.005 0.005 0 1 1
6.41752 77.0219 -14.1168 0.236786 769 0.005 0.005 0.005 0.005 0 1 1
6.50493 76.501 -14.6457 0.232293 769 0.005 0.005 0.005 0.005 0 1 1
6.66182 75.9693 -15.1471 0.214677 769 0.005 0.005 0.005 0.005 0 1 1
6.83095 75.4672 -15.6743 0.210291 769 0.005 0.005 0.005 0.005 0 1 1
6.95398 74.996 -16.2415 0 769 0.005 0.005 0.005 0.005 0 1 1
6.9548 74.9929 -16.2453 0 769 0 0 0 0 0 0 1
6.9548 74.9929 -16.2453 0 769 0 0 0 0 0 0 1
3.61371 91.3353 3.2946 0 770 0 0 0 0 0 0 1
3.61371 91.3353 3.2946 0 770 0 0 0 0 0 0 1
3.61643 91.3357 3.29042 0.031407 770 0.005 0.005 0.005 0.005 0 1 1
4.02477 91.3853 2.66116 0.0566171 770 0.005 0.005 0.005 0.005 0 1 1
4.45334 91.0892 2.11936 0.071555 770 0.005 0.005 0.005 0.005 0 1 1
4.80167 90.5805 1.68827 0.108536 770 0.005 0.005 0.005 0.005 0 1 1
5.06509 89.9755 1.32671 0.151295 770 0.005 0.005 0.005 0.005 0 1 1
5.28327 89.3416 0.986334 0.205144 770 0.005 0.005 0.005 0.005 0 1 1
5.49989 88.7299 0.606237 0.227826 770 0.005 0.005 0.005 0.005 0 1 1
5.71622 88.1185 0.224894 0.226029 770 0.005 0.005 0.005 0.005 0 1 1
5.929 87.4877 -0.125307 0.248836 770 0.005 0.005 0.005 0.005 0 1 1
6.10271 86.8257 -0.436046 0.318411 770 0.005 0.005 0.005 0.005 0 1 1
6.22008 86.1539 -0.753076 0.355046 770 0.005 0.005 0.005 0.005 0 1 1
6.33985 85.5004 -1.10623 0.345637 770 0.005 0.005 0.005 0.005 0 1 1
6.51448 84.8773 -1.48971 0.337049 770 0.005 0.005 0.005 0.005 0 1 1
6.7572 84.306 -1.91459 0.365865 770 0.005 0.005 0.005 0.005 0 1 1
7.02122 83.7839 -2.38724 0.405738 770 0.005 0.005 0.005 0.005 0 1 1
7.26506 83.28 -2.88945 0.423177 770 0.005 0.005 0.005 0.005 0 1 1
7.50621 82.7899 -3.40681 0.429316 770 0.005 0.005 0.005 0.005 0 1 1
7.77423 82.3403 -3.94717 0.441941 770 0.005 0.005 0.005 0.005 0 1 1
8.05831 81.9421 -4.51874 0.459541 770 0.005 0.005 0.005 0.005 0 1 1
8.33076 81.5864 -5.12296 0.459481 770 0.005 0.005 0.005 0.005 0 1 1
8.61887 81.2443 -5.7277 0.451513 770 0.005 0.005 0.005 0.005 0 1 1
8.94159 80.8994 -6.31323 0.451107 770 0.005 0.005 0.005 0.005 0 1 1
9.27042 80.552 -6.89386 0.466229 770 0.005 0.005 0.005 0.005 0 1 1
9.56905 80.2013 -7.48828 0.494289 770 0.005 0.005 0.005 0.005 0 1 1
9.81033 79.8266 -8.09406 0.503436 770 0.005 0.005 0.005 0.005 0 1 1
10.0551 79.4365 -8.68872 0.489763 770 0.005 0.005 0.005 0.005 0 1 1
10.354 79.057 -9.26535 0.497921 770 0.005 0.005 0.005 0.005 0 1 1
10.6599 78.6454 -9.81561 0.540332 770 0.005 0.005 0.005 0.005 0 1 1
10.9097 78.1704 -10.3422 0.559258 770 0.005 0.005 0.005 0.005 0 1 1
11.1485 77.6805 -10.8604 0.548767 770 0.005 0.005 0.005 0.005 0 1 1
11.4193 77.223 -11.3926 0.554669 770 0.005 0.005 0.005 0.005 0 1 1
11.6864 76.8065 -11.9591 0.571017 770 0.005 0.005 0.005 0.005 0 1 1
11.9402 76.4088 -12.5449 0.585067 770 0.005 0.005 0.005 0.005 0 1 1
12.2066 76.0191 -13.1306 0.597552 770 0.005 0.005 0.005 0.005 0 1 1
12.4445 75.6972 -13.7669 0.589402 770 0.005 0.005 0.005 0.005 0 1 1
12.6243 75.4862 -14.466 0.600265 770 0.005 0.005 0.005 0.005 0 1 1
12.7996 75.3109 -15.1759 0.629965 770 0.005 0.005 0.005 0.005 0 1 1
13.0246 75.1272 -15.8696 0.627304 770 0.005 0.005 0.005 0.005 0 1 1
13.2656 74.996 -16.57 0 770 0.005 0.005 0.005 0.005 0 1 1
13.2672 74.9951 -16.5747 0 770 0 0 0 0 0 0 1
13.2672 74.9951 -16.5747 0 770 0 0 0 0 0 0 1
6.22922 88.3217 8.02931 0 771 0 0 0 0 0 0 1
6.22922 88.3217 8.02931 0 771 0 0 0 0 0 0 1
6.2335 88.3205 8.02703 0.00622159 771 0.005 0.005 0.005 0.005 0 1 1
6.87805 88.1386 7.68479 0.0444393 771 0.005 0.005 0.005 0.005 0 1 1
7.45506 87.7931 7.34396 0.0828056 771 0.005 0.005 0.005 0.005 0 1 1
7.93458 87.2686 7.09219 0.119526 771 0.005 0.005 0.005 0.005 0 1 1
8.2793 86.6152 6.94441 0.226274 771 0.005 0.005 0.005 0.005 0 1 1
8.49429 85.9016 6.83098 0.324441 771 0.005 0.005 0.005 0.005 0 1 1
8.66085 85.1739 6.72435 0.349743 771 0.005 0.005 0.005 0.005 0 1 1
8.8388 84.4445 6.65591 0.320996 771 0.005 0.005 0.005 0.005 0 1 1
9.06137 83.7242 6.64567 0.330715 771 0.005 0.005 0.005 0.005 0 1 1
9.28633 83.0057 6.68772 0.408209 771 0.005 0.005 0.005 0.005 0 1 1
9.46825 82.2768 6.74861 0.487691 771 0.005 0.005 0.005 0.005 0 1 1
9.62648 81.5413 6.80014 0.496276 771 0.005 0.005 0.005 0.005 0 1 1
9.81749 80.8132 6.84451 0.488134 771 0.005 0.005 0.005 0.005 0 1 1
10.0524 80.0974 6.87693 0.507015 771 0.005 0.005 0.005 0.005 0 1 1
10.3142 79.3903 6.88266 0.488452 771 0.005 0.005 0.005 0.005 0 1 1
10.6233 78.7026 6.87804 0.459884 771 0.005 0.005 0.005 0.005 0 1 1
11.0028 78.0514 6.85373 0.453879 771 0.005 0.005 0.005 0.005 0 1 1
11.4542 77.4515 6.78381 0.470607 771 0.005 0.005 0.005 0.005 0 1 1
11.9551 76.9044 6.64954 0.498608 771 0.005 0.005 0.005 0.005 0 1 1
12.4678 76.388 6.45323 0.466673 771 0.005 0.005 0.005 0.005 0 1 1
13.0307 75.9456 6.21726 0.380999 771 0.005 0.005 0.005 0.005 0 1 1
13.6715 75.6471 5.95528 0.364196 771 0.005 0.005 0.005 0.005 0 1 1
14.3376 75.4242 5.68178 0.417616 771 0.005 0.005 0.005 0.005 0 1 1
14.9916 75.1954 5.38543 0.413861 771 0.005 0.005 0.005 0.005 0 1 1
15.6538 75.0326 5.06441 0.354115 771 0.005 0.005 0.005 0.005 0 1 1
16.3258 74.996 4.725 0.328697 771 0.005 0.005 0.005 0.005 0 1 1
16.9873 75.0157 4.3637 0.365659 771 0.005 0.005 0.005 0.005 0 1 1
17.645 75.0231 3.9954 0.408261 771 0.005 0.005 0.005 0.005 0 1 1
18.3122 75.0098 3.64434 0.382383 771 0.005 0.005 0.005 0.005 0 1 1
18.9491 74.9985 3.24205 0.310862 771 0.005 0.005 0.005 0.005 0 1 1
19.5285 75.0153 2.76035 0 771 0.005 0.005 0.005 0.005 0 1 1
19.5323 75.0154 2.75716 0 771 0 0 0 0 0 0 1
19.5323 75.0154 2.75716 0 771 0 0 0 0 0 0 1
2.69292 91.6055 2.68458 0 772 0 0 0 0 0 0 1
2.69292 91.6055 2.68458 0 772 0 0 0 0 0 0 1
2.69547 91.6058 2.68029 -0.0120601 772 0.005 0.005 0.005 0.005 0 1 1
3.07779 91.6489 2.03387 -0.0120749 772 0.005 0.005 0.005 0.005 0 1 1
3.41306 91.3902 1.41279 0.062898 772 0.005 0.005 0.005 0.005 0 1 1
3.61795 90.9059 0.875352 0.124903 772 0.005 0.005 0.005 0.005 0 1 1
3.75047 90.3095 0.436423 0.102238 772 0.005 0.005 0.005 0.005 0 1 1
3.91335 89.6769 0.0643894 0.105507 772 0.005 0.005 0.005 0.005 0 1 1
4.10538 89.0523 -0.308017 0.189068 772 0.005 0.005 0.005 0.005 0 1 1
4.25358 88.4207 -0.688736 0.209319 772 0.005 0.005 0.005 0.005 0 1 1
4.3765 87.7581 -1.02226 0.226083 772 0.005 0.005 0.005 0.005 0 1 1
4.48201 87.0772 -1.32398 0.317419 772 0.005 0.005 0.005 0.005 0 1 1
4.55933 86.4249 -1.68984 0.3799 772 0.005 0.005 0.005 0.005 0 1 1
4.63791 85.8204 -2.13061 0.368721 772 0.005 0.005 0.005 0.005 0 1 1
4.74907 85.2279 -2.57993 0.34264 772 0.005 0.005 0.005 0.005 0 1 1
4.875 84.6078 -2.98571 0.370041 772 0.005 0.005 0.005 0.005 0 1 1
4.98976 83.992 -3.40224 0.412925 772 0.005 0.005 0.005 0.005 0 1 1
5.10063 83.4158 -3.87291 0.457531 772 0.005 0.005 0.005 0.005 0 1 1
5.23869 82.9405 -4.43845 0.478452 772 0.005 0.005 0.005 0.005 0 1 1
5.42193 82.5787 -5.07197 0.487957 772 0.005 0.005 0.005 0.005 0 1 1
5.63184 82.2641 -5.72223 0.502041 772 0.005 0.005 0.005 0.005 0 1 1
5.84706 81.9569 -6.37395 0.527165 772 0.005 0.005 0.005 0.005 0 1 1
6.00929 81.6262 -7.02921 0.545785 772 0.005 0.005 0.005 0.005 0 1 1
6.13108 81.3051 -7.69844 0.552878 772 0.005 0.005 0.005 0.005 0 1 1
6.27158 80.9917 -8.3677 0.549483 772 0.005 0.005 0.005 0.005 0 1 1
6.46504 80.6743 -9.02156 0.539602 772 0.005 0.005 0.005 0.005 0 1 1
6.69071 80.3457 -9.65935 0.550112 772 0.005 0.005 0.005 0.005 0 1 1
6.8903 79.9876 -10.2899 0.572941 772 0.005 0.005 0.005 0.005 0 1 1
7.05683 79.5681 -10.8914 0.584805 772 0.005 0.005 0.005 0.005 0 1 1
7.22191 79.1019 -11.4583 0.587338 772 0.005 0.005 0.005 0.005 0 1 1
7.40188 78.6259 -12.0123 0.600573 772 0.005 0.005 0.005 0.005 0 1 1
7.56954 78.157 -12.5758 0.620186 772 0.005 0.005 0.005 0.005 0 1 1
7.7125 77.6859 -13.1446 0.623717 772 0.005 0.005 0.005 0.005 0 1 1
7.88031 77.2043 -13.6973 0.624766 772 0.005 0.005 0.005 0.005 0 1 1
8.08243 76.7331 -14.2478 0.632445 772 0.005 0.005 0.005 0.005 0 1 1
8.28692 76.313 -14.8372 0.645028 772 0.005 0.005 0.005 0.005 0 1 1
8.43931 75.9616 -15.4841 0.650054 772 0.005 0.005 0.005 0.005 0 1 1
8.53569 75.6596 -16.1661 0.6458 772 0.005 0.005 0.005 0.005 0 1 1
8.66272 75.4071 -16.863 0.647188 772 0.005 0.005 0.005 0.005 0 1 1
8.84071 75.1986 -17.5636 0.654134 772 0.005 0.005 0.005 0.005 0 1 1
9.0048 74.996 -18.2691 0 772 0.005 0.005 0.005 0.005 0 1 1
9.00589 74.9947 -18.2738 0 772 0 0 0 0 0 0 1
9.00589 74.9947 -18.2738 0 772 0 0 0 0 0 0 1
2.86831 92.3971 2.77509 0 773 0 0 0 0 0 0 1
2.86831 92.3971 2.77509 0 773 0 0 0 0 0 0 1
2.87031 92.3978 2.77056 0.0255623 773 0.005 0.005 0.005 0.005 0 1 1
3.17207 92.5019 2.08978 0.0321604 773 0.005 0.005 0.005 0.005 0 1 1
3.51176 92.1864 1.49615 0.0470525 773 0.005 0.005 0.005 0.005 0 1 1
3.77642 91.6673 1.01801 0.0938195 773 0.005 0.005 0.005 0.005 0 1 1
3.97269 91.0729 0.599349 0.150698 773 0.005 0.005 0.005 0.005 0 1 1
4.1378 90.4731 0.174382 0.163191 773 0.005 0.005 0.005 0.005 0 1 1
4.29253 89.8501 -0.220621 0.155246 773 0.005 0.005 0.005 0.005 0 1 1
4.43935 89.1969 -0.566558 0.178659 773 0.005 0.005 0.005 0.005 0 1 1
4.54564 88.5087 -0.852859 0.251077 773 0.005 0.005 0.005 0.005 0 1 1
4.5892 87.8039 -1.11599 0.283004 773 0.005 0.005 0.005 0.005 0 1 1
4.62489 87.1059 -1.398 0.264016 773 0.005 0.005 0.005 0.005 0 1 1
4.70551 86.4262 -1.71313 0.257467 773 0.005 0.005 0.005 0.005 0 1 1
4.83773 85.7877 -2.09078 0.302259 773 0.005 0.005 0.005 0.005 0 1 1
4.97072 85.1903 -2.53037 0.340364 773 0.005 0.005 0.005 0.005 0 1 1
5.08245 84.605 -2.99137 0.342336 773 0.005 0.005 0.005 0.005 0 1 1
5.19935 84.0234 -3.45597 0.339533 773 0.005 0.005 0.005 0.005 0 1 1
5.34693 83.4757 -3.95229 0.359028 773 0.005 0.005 0.005 0.005 0 1 1
5.50736 82.9864 -4.50241 0.388811 773 0.005 0.005 0.005 0.005 0 1 1
5.6506 82.557 -5.10488 0.38633 773 0.005 0.005 0.005 0.005 0 1 1
5.81637 82.168 -5.7285 0.373725 773 0.005 0.005 0.005 0.005 0 1 1
6.03452 81.8073 -6.35318 0.378997 773 0.005 0.005 0.005 0.005 0 1 1
6.27193 81.4888 -6.99358 0.39511 773 0.005 0.005 0.005 0.005 0 1 1
6.47302 81.2037 -7.66114 0.40879 773 0.005 0.005 0.005 0.005 0 1 1
6.61522 80.9114 -8.34071 0.408225 773 0.005 0.005 0.005 0.005 0 1 1
6.76829 80.5937 -9.0066 0.387097 773 0.005 0.005 0.005 0.005 0 1 1
6.98951 80.2546 -9.64221 0.381548 773 0.005 0.005 0.005 0.005 0 1 1
7.22697 79.8756 -10.2486 0.411282 773 0.005 0.005 0.005 0.005 0 1 1
7.4139 79.4345 -10.8298 0.416216 773 0.005 0.005 0.005 0.005 0 1 1
7.6047 78.9719 -11.3932 0.390604 773 0.005 0.005 0.005 0.005 0 1 1
7.83397 78.5291 -11.9582 0.382783 773 0.005 0.005 0.005 0.005 0 1 1
8.04788 78.0911 -12.5327 0.393443 773 0.005 0.005 0.005 0.005 0 1 1
8.24437 77.6323 -13.0972 0.402437 773 0.005 0.005 0.005 0.005 0 1 1
8.46415 77.1469 -13.6299 0.411013 773 0.005 0.005 0.005 0.005 0 1 1
8.6504 76.6753 -14.1869 0.404203 773 0.005 0.005 0.005 0.005 0 1 1
8.77013 76.2513 -14.798 0.41162 773 0.005 0.005 0.005 0.005 0 1 1
8.89251 75.8306 -15.4108 0.421469 773 0.005 0.005 0.005 0.005 0 1 1
9.0764 75.3954 -15.9976 0.408933 773 0.005 0.005 0.005 0.005 0 1 1
9.27276 74.996 -16.6057 0 773 0.005 0.005 0.005 0.005 0 1 1
9.27406 74.9934 -16.6097 0 773 0 0 0 0 0 0 1
9.27406 74.9934 -16.6097 0 773 0 0 0 0 0 0 1
3.75362 89.9493 3.62071 0 774 0 0 0 0 0 0 1
3.75362 89.9493 3.62071 0 774 0 0 0 0 0 0 1
3.75703 89.9491 3.61705 -0.00312332 774 0.005 0.005 0.005 0.005 0 1 1
4.2641 89.9221 3.07283 0.0016142 774 0.005 0.005 0.005 0.005 0 1 1
4.76877 89.6376 2.60554 0.0324006 774 0.005 0.005 0.005 0.005 0 1 1
5.20176 89.1897 2.19834 0.108992 774 0.005 0.005 0.005 0.005 0 1 1
5.54737 88.6836 1.77626 0.160273 774 0.005 0.005 0.005 0.005 0 1 1
5.85312 88.154 1.3517 0.142881 774 0.005 0.005 0.005 0.005 0 1 1
6.15267 87.5782 0.988355 0.139495 774 0.005 0.005 0.005 0.005 0 1 1
6.41669 86.9509 0.687231 0.177678 774 0.005 0.005 0.005 0.005 0 1 1
6.6445 86.3083 0.38829 0.20784 774 0.005 0.005 0.005 0.005 0 1 1
6.86747 85.6746 0.0677266 0.241258 774 0.005 0.005 0.005 0.005 0 1 1
7.12567 85.0949 -0.320158 0.267438 774 0.005 0.005 0.005 0.005 0 1 1
7.42116 84.5821 -0.771548 0.271507 774 0.005 0.005 0.005 0.005 0 1 1
7.73462 84.0899 -1.23378 0.273143 774 0.005 0.005 0.005 0.005 0 1 1
8.05044 83.5892 -1.68434 0.307596 774 0.005 0.005 0.005 0.005 0 1 1
8.32069 83.0664 -2.1394 0.343534 774 0.005 0.005 0.005 0.005 0 1 1
8.56207 82.5641 -2.63287 0.348805 774 0.005 0.005 0.005 0.005 0 1 1
8.82752 82.1031 -3.15349 0.338889 774 0.005 0.005 0.005 0.005 0 1 1
9.14963 81.6963 -3.68697 0.337232 774 0.005 0.005 0.005 0.005 0 1 1
9.51106 81.3521 -4.23923 0.352962 774 0.005 0.005 0.005 0.005 0 1 1
9.85509 81.0325 -4.81654 0.366336 774 0.005 0.005 0.005 0.005 0 1 1
10.1639 80.6966 -5.40446 0.368721 774 0.005 0.005 0.005 0.005 0 1 1
10.4641 80.3447 -5.98779 0.367376 774 0.005 0.005 0.005 0.005 0 1 1
10.7709 79.9837 -6.56195 0.375106 774 0.005 0.005 0.005 0.005 0 1 1
11.0638 79.6121 -7.13651 0.387007 774 0.005 0.005 0.005 0.005 0 1 1
11.3385 79.2214 -7.70746 0.384106 774 0.005 0.005 0.005 0.005 0 1 1
11.6304 78.8008 -8.24765 0.37856 774 0.005 0.005 0.005 0.005 0 1 1
11.9394 78.3589 -8.76088 0.385584 774 0.005 0.005 0.005 0.005 0 1 1
12.2368 77.9012 -9.26686 0.416431 774 0.005 0.005 0.005 0.005 0 1 1
12.486 77.4326 -9.7883 0.453132 774 0.005 0.005 0.005 0.005 0 1 1
12.6839 76.9426 -10.3123 0.447836 774 0.005 0.005 0.005 0.005 0 1 1
12.9105 76.4829 -10.852 0.43463 774 0.005 0.005 0.005 0.005 0 1 1
13.1897 76.0838 -11.4148 0.460059 774 0.005 0.005 0.005 0.005 0 1 1
13.4669 75.7165 -11.9995 0.490698 774 0.005 0.005 0.005 0.005 0 1 1
13.7071 75.3736 -12.6147 0.492691 774 0.005 0.005 0.005 0.005 0 1 1
13.9711 75.1277 -13.2656 0.488869 774 0.005 0.005 0.005 0.005 0 1 1
14.261 75.0162 -13.9419 0.482664 774 0.005 0.005 0.005 0.005 0 1 1
14.5351 74.996 -14.6336 0.488816 774 0.005 0.005 0.005 0.005 0 1 1
14.8051 74.9994 -15.3271 0.502106 774 0.005 0.005 0.005 0.005 0 1 1
15.0865 74.996 -16.0161 0.476533 774 0.005 0.005 0.005 0.005 0 1 1
15.3269 75.0039 -16.7205 0 774 0.005 0.005 0.005 0.005 0 1 1
15.3285 75.0039 -16.7252 0 774 0 0 0 0 0 0 1
15.3285 75.0039 -16.7252 0 774 0 0 0 0 0 0 1
3.27773 91.8061 3.01409 0 775 0 0 0 0 0 0 1
3.27773 91.8061 3.01409 0 775 0 0 0 0 0 0 1
3.28025 91.8055 3.00982 0.0164254 775 0.005 0.005 0.005 0.005 0 1 1
3.65657 91.7117 2.37199 0.0218877 775 0.005 0.005 0.005 0.005 0 1 1
4.05773 91.4492 1.79974 0.061551 775 0.005 0.005 0.005 0.005 0 1 1
4.38063 91.0274 1.2745 0.0747555 775 0.005 0.005 0.005 0.005 0 1 1
4.6387 90.467 0.853778 0.0813977 775 0.005 0.005 0.005 0.005 0 1 1
4.84085 89.8267 0.526349 0.165931 775 0.005 0.005 0.005 0.005 0 1 1
4.9814 89.1746 0.190809 0.234297 775 0.005 0.005 0.005 0.005 0 1 1
5.09745 88.5363 -0.179615 0.212954 775 0.005 0.005 0.005 0.005 0 1 1
5.23092 87.8875 -0.524086 0.171733 775 0.005 0.005 0.005 0.005 0 1 1
5.36649 87.2042 -0.792709 0.195792 775 0.005 0.005 0.005 0.005 0 1 1
5.47973 86.5091 -1.04215 0.237589 775 0.005 0.005 0.005 0.005 0 1 1
5.58359 85.8253 -1.32443 0.278973 775 0.005 0.005 0.005 0.005 0 1 1
5.71086 85.1902 -1.69517 0.301658 775 0.005 0.005 0.005 0.005 0 1 1
5.87952 84.6299 -2.15956 0.300337 775 0.005 0.005 0.005 0.005 0 1 1
6.07675 84.109 -2.65742 0.297573 775 0.005 0.005 0.005 0.005 0 1 1
6.2892 83.6003 -3.16127 0.325504 775 0.005 0.005 0.005 0.005 0 1 1
6.46685 83.0827 -3.66887 0.3581 775 0.005 0.005 0.005 0.005 0 1 1
6.60895 82.5932 -4.21494 0.358813 775 0.005 0.005 0.005 0.005 0 1 1
6.77114 82.1569 -4.79923 0.34549 775 0.005 0.005 0.005 0.005 0 1 1
6.99322 81.7892 -5.41033 0.339145 775 0.005 0.005 0.005 0.005 0 1 1
7.26242 81.5055 -6.04666 0.344661 775 0.005 0.005 0.005 0.005 0 1 1
7.52096 81.2619 -6.70369 0.349815 775 0.005 0.005 0.005 0.005 0 1 1
7.75458 80.9883 -7.35809 0.349862 775 0.005 0.005 0.005 0.005 0 1 1
7.99055 80.6721 -7.9925 0.344679 775 0.005 0.005 0.005 0.005 0 1 1
8.24487 80.3308 -8.60651 0.343971 775 0.005 0.005 0.005 0.005 0 1 1
8.49555 79.9548 -9.20125 0.35542 775 0.005 0.005 0.005 0.005 0 1 1
8.72194 79.5517 -9.78796 0.356116 775 0.005 0.005 0.005 0.005 0 1 1
8.96647 79.1172 -10.3441 0.348506 775 0.005 0.005 0.005 0.005 0 1 1
9.24148 78.6622 -10.8689 0.348547 775 0.005 0.005 0.005 0.005 0 1 1
9.51556 78.2093 -11.3959 0.368415 775 0.005 0.005 0.005 0.005 0 1 1
9.74261 77.7573 -11.9452 0.401134 775 0.005 0.005 0.005 0.005 0 1 1
9.90686 77.2928 -12.5064 0.396503 775 0.005 0.005 0.005 0.005 0 1 1
10.0847 76.8482 -13.0797 0.373459 775 0.005 0.005 0.005 0.005 0 1 1
10.3174 76.4574 -13.6723 0.386449 775 0.005 0.005 0.005 0.005 0 1 1
10.5526 76.0932 -14.2805 0.414687 775 0.005 0.005 0.005 0.005 0 1 1
10.7358 75.7297 -14.9064 0.413652 775 0.005 0.005 0.005 0.005 0 1 1
10.9269 75.4122 -15.5548 0.400555 775 0.005 0.005 0.005 0.005 0 1 1
11.1454 75.1779 -16.2296 0.390247 775 0.005 0.005 0.005 0.005 0 1 1
11.3497 74.996 -16.9247 0 775 0.005 0.005 0.005 0.005 0 1 1
11.3511 74.9948 -16.9294 0 775 0 0 0 0 0 0 1
11.3511 74.9948 -16.9294 0 775 0 0 0 0 0 0 1
3.52738 92.4554 3.1578 0 776 0 0 0 0 0 0 1
3.52738 92.4554 3.1578 0 776 0 0 0 0 0 0 1
3.53018 92.4557 3.15367 0.00481869 776 0.005 0.005 0.005 0.005 0 1 1
3.95147 92.4948 2.53306 0.0149103 776 0.005 0.005 0.005 0.005 0 1 1
4.36048 92.1707 1.99179 0.0461813 776 0.005 0.005 0.005 0.005 0 1 1
4.69397 91.6778 1.53267 0.105211 776 0.005 0.005 0.005 0.005 0 1 1
4.97587 91.1442 1.08509 0.14574 776 0.005 0.005 0.005 0.005 0 1 1
5.22798 90.5776 0.659698 0.149542 776 0.005 0.005 0.005 0.005 0 1 1
5.45993 89.9646 0.291184 0.155644 776 0.005 0.005 0.005 0.005 0 1 1
5.6556 89.3039 -0.00822441 0.220023 776 0.005 0.005 0.005 0.005 0 1 1
5.77247 88.6047 -0.25797 0.278764 776 0.005 0.005 0.005 0.005 0 1 1
5.84806 87.8995 -0.507776 0.274453 776 0.005 0.005 0.005 0.005 0 1 1
5.94801 87.2017 -0.769137 0.251326 776 0.005 0.005 0.005 0.005 0 1 1
6.10542 86.5287 -1.06476 0.273169 776 0.005 0.005 0.005 0.005 0 1 1
6.29012 85.8883 -1.41278 0.32361 776 0.005 0.005 0.005 0.005 0 1 1
6.45608 85.2602 -1.79078 0.348858 776 0.005 0.005 0.005 0.005 0 1 1
6.6063 84.6303 -2.1726 0.350507 776 0.005 0.005 0.005 0.005 0 1 1
6.77866 84.02 -2.57667 0.36301 776 0.005 0.005 0.005 0.005 0 1 1
6.97967 83.4546 -3.02981 0.39674 776 0.005 0.005 0.005 0.005 0 1 1
7.1809 82.9428 -3.54237 0.408576 776 0.005 0.005 0.005 0.005 0 1 1
7.39378 82.4781 -4.09362 0.392297 776 0.005 0.005 0.005 0.005 0 1 1
7.65734 82.0481 -4.65122 0.392551 776 0.005 0.005 0.005 0.005 0 1 1
7.95689 81.6661 -5.22541 0.410424 776 0.005 0.005 0.005 0.005 0 1 1
8.24981 81.3364 -5.83408 0.431062 776 0.005 0.005 0.005 0.005 0 1 1
8.49402 81.0254 -6.47315 0.436965 776 0.005 0.005 0.005 0.005 0 1 1
8.71951 80.6978 -7.11114 0.419511 776 0.005 0.005 0.005 0.005 0 1 1
8.98598 80.3758 -7.73605 0.405764 776 0.005 0.005 0.005 0.005 0 1 1
9.2721 80.0432 -8.34667 0.422498 776 0.005 0.005 0.005 0.005 0 1 1
9.51519 79.6562 -8.94316 0.439134 776 0.005 0.005 0.005 0.005 0 1 1
