ply
format ascii 1.0
comment created by ADONIS
element vertex 742
property float x
property float y
property float z
property float theta
property int segment
property float ra
property float rb
property float ha
property float hb
property int group
property int actual
element face 0
property list int int vertex_indices
end_header 
10.6105 -19.0519 -0.753238 0 882 0.005 0.005 0.005 0.005 0 1
10.6099 -19.0565 -0.754999 0 882 0 0 0 0 0 0
10.6099 -19.0565 -0.754999 0 882 0 0 0 0 0 0
3.56488 4.01948 -2.65995 0 883 0 0 0 0 0 0
3.56488 4.01948 -2.65995 0 883 0 0 0 0 0 0
3.56785 4.02282 -2.66217 0.611386 883 0.005 0.005 0.005 0.005 0 1
4.02138 4.53313 -3.00057 0.578892 883 0.005 0.005 0.005 0.005 0 1
4.858 4.86382 -3.47119 0.827402 883 0.005 0.005 0.005 0.005 0 1
5.21485 4.74394 -4.04792 0.388747 883 0.005 0.005 0.005 0.005 0 1
5.56244 4.24423 -4.37019 0.0889533 883 0.005 0.005 0.005 0.005 0 1
6.05764 3.7715 -4.44555 0.648493 883 0.005 0.005 0.005 0.005 0 1
6.60169 3.42928 -4.69302 1.19626 883 0.005 0.005 0.005 0.005 0 1
6.87157 2.97567 -5.13548 0.703371 883 0.005 0.005 0.005 0.005 0 1
6.87148 2.32825 -5.37049 -0.0856568 883 0.005 0.005 0.005 0.005 0 1
6.97594 1.65272 -5.28598 0.198809 883 0.005 0.005 0.005 0.005 0 1
7.33987 1.06836 -5.26455 1.14676 883 0.005 0.005 0.005 0.005 0 1
7.62227 0.505155 -5.54279 1.15224 883 0.005 0.005 0.005 0.005 0 1
7.56303 -0.126414 -5.8111 0.163022 883 0.005 0.005 0.005 0.005 0 1
7.43045 -0.799321 -5.74786 -0.17111 883 0.005 0.005 0.005 0.005 0 1
7.58738 -1.44363 -5.56177 0.734457 883 0.005 0.005 0.005 0.005 0 1
7.88934 -2.05614 -5.65108 1.37657 883 0.005 0.005 0.005 0.005 0 1
7.92625 -2.68184 -5.9366 0.661219 883 0.005 0.005 0.005 0.005 0 1
7.71349 -3.33399 -5.99827 -0.222867 883 0.005 0.005 0.005 0.005 0 1
7.66954 -3.98554 -5.77922 0.203536 883 0.005 0.005 0.005 0.005 0 1
7.92132 -4.61949 -5.68392 1.23935 883 0.005 0.005 0.005 0.005 0 1
8.09156 -5.2495 -5.90395 1.14756 883 0.005 0.005 0.005 0.005 0 1
7.93136 -5.89066 -6.09785 0.0736876 883 0.005 0.005 0.005 0.005 0 1
7.73729 -6.5376 -5.96295 -0.188793 883 0.005 0.005 0.005 0.005 0 1
7.85817 -7.17851 -5.74165 0.79925 883 0.005 0.005 0.005 0.005 0 1
8.11268 -7.81387 -5.81837 1.39159 883 0.005 0.005 0.005 0.005 0 1
8.09216 -8.45186 -6.07701 0.589209 883 0.005 0.005 0.005 0.005 0 1
7.84428 -9.09419 -6.09522 -0.267739 883 0.005 0.005 0.005 0.005 0 1
7.79417 -9.73573 -5.84976 0.248547 883 0.005 0.005 0.005 0.005 0 1
8.03552 -10.3741 -5.75662 1.28024 883 0.005 0.005 0.005 0.005 0 1
8.17298 -11.012 -5.97667 1.09952 883 0.005 0.005 0.005 0.005 0 1
7.98313 -11.6519 -6.1464 0.0024675 883 0.005 0.005 0.005 0.005 0 1
7.78782 -12.2923 -5.98481 -0.179485 883 0.005 0.005 0.005 0.005 0 1
7.91793 -12.9314 -5.76331 0.856498 883 0.005 0.005 0.005 0.005 0 1
8.16012 -13.5698 -5.8532 1.38221 883 0.005 0.005 0.005 0.005 0 1
8.1131 -14.2089 -6.10548 0.51128 883 0.005 0.005 0.005 0.005 0 1
7.85746 -14.8484 -6.09895 -0.304987 883 0.005 0.005 0.005 0.005 0 1
7.82225 -15.4871 -5.84378 0.295198 883 0.005 0.005 0.005 0.005 0 1
8.06881 -16.1253 -5.76505 1.31144 883 0.005 0.005 0.005 0.005 0 1
8.18758 -16.7641 -5.99353 1.04327 883 0.005 0.005 0.005 0.005 0 1
7.98171 -17.4032 -6.14656 -0.0698803 883 0.005 0.005 0.005 0.005 0 1
7.79619 -18.0416 -5.96656 0 883 0.005 0.005 0.005 0.005 0 1
7.79484 -18.0462 -5.96526 0 883 0 0 0 0 0 0
7.79484 -18.0462 -5.96526 0 883 0 0 0 0 0 0
3.52665 4.73356 1.04696 0 884 0 0 0 0 0 0
3.52665 4.73356 1.04696 0 884 0 0 0 0 0 0
3.52959 4.7375 1.04783 -0.366912 884 0.005 0.005 0.005 0.005 0 1
3.97843 5.33866 1.18108 -0.484618 884 0.005 0.005 0.005 0.005 0 1
4.7963 5.78707 1.58204 -0.0618064 884 0.005 0.005 0.005 0.005 0 1
5.48296 5.79983 1.5306 -0.00430944 884 0.005 0.005 0.005 0.005 0 1
6.01899 5.37057 1.58317 -0.635622 884 0.005 0.005 0.005 0.005 0 1
6.39797 4.90021 1.9141 -0.894555 884 0.005 0.005 0.005 0.005 0 1
6.9102 4.58033 2.24525 -0.143313 884 0.005 0.005 0.005 0.005 0 1
7.47075 4.18018 2.25018 0.378401 884 0.005 0.005 0.005 0.005 0 1
7.73681 3.56269 2.1009 -0.305316 884 0.005 0.005 0.005 0.005 0 1
7.75399 2.87996 2.19019 -1.10878 884 0.005 0.005 0.005 0.005 0 1
7.92231 2.28877 2.50086 -0.632267 884 0.005 0.005 0.005 0.005 0 1
8.32073 1.73966 2.61994 0.373704 884 0.005 0.005 0.005 0.005 0 1
8.56628 1.12331 2.43508 0.197242 884 0.005 0.005 0.005 0.005 0 1
8.47783 0.449444 2.32356 -0.901293 884 0.005 0.005 0.005 0.005 0 1
8.39251 -0.202043 2.53009 -1.08321 884 0.005 0.005 0.005 0.005 0 1
8.61414 -0.812771 2.75885 -0.0213195 884 0.005 0.005 0.005 0.005 0 1
8.9037 -1.43086 2.66715 0.510382 884 0.005 0.005 0.005 0.005 0 1
8.88556 -2.08127 2.44135 -0.396712 884 0.005 0.005 0.005 0.005 0 1
8.6795 -2.73692 2.48606 -1.2276 884 0.005 0.005 0.005 0.005 0 1
8.70611 -3.37218 2.75092 -0.591549 884 0.005 0.005 0.005 0.005 0 1
8.98585 -3.9985 2.81308 0.458055 884 0.005 0.005 0.005 0.005 0 1
9.10564 -4.63735 2.58534 0.157044 884 0.005 0.005 0.005 0.005 0 1
8.91122 -5.28654 2.46223 -0.994069 884 0.005 0.005 0.005 0.005 0 1
8.76663 -5.92948 2.66231 -1.071 884 0.005 0.005 0.005 0.005 0 1
8.94813 -6.563 2.86252 0.0576122 884 0.005 0.005 0.005 0.005 0 1
9.18261 -7.19841 2.73763 0.508264 884 0.005 0.005 0.005 0.005 0 1
9.10422 -7.84166 2.50429 -0.480407 884 0.005 0.005 0.005 0.005 0 1
8.86637 -8.48562 2.55981 -1.25271 884 0.005 0.005 0.005 0.005 0 1
8.8867 -9.12347 2.81876 -0.520436 884 0.005 0.005 0.005 0.005 0 1
9.15007 -9.75884 2.85484 0.49947 884 0.005 0.005 0.005 0.005 0 1
9.23318 -10.3983 2.61314 0.0974607 884 0.005 0.005 0.005 0.005 0 1
9.01192 -11.0411 2.50244 -1.05671 884 0.005 0.005 0.005 0.005 0 1
8.86926 -11.6811 2.71311 -1.03451 884 0.005 0.005 0.005 0.005 0 1
9.05666 -12.3174 2.89858 0.129728 884 0.005 0.005 0.005 0.005 0 1
9.2734 -12.9549 2.7536 0.493432 884 0.005 0.005 0.005 0.005 0 1
9.16868 -13.5958 2.52455 -0.557953 884 0.005 0.005 0.005 0.005 0 1
8.92753 -14.2367 2.5986 -1.2697 884 0.005 0.005 0.005 0.005 0 1
8.96277 -14.874 2.85726 -0.450832 884 0.005 0.005 0.005 0.005 0 1
9.22576 -15.5103 2.87336 0.534949 884 0.005 0.005 0.005 0.005 0 1
9.28692 -16.1495 2.62432 0.0384463 884 0.005 0.005 0.005 0.005 0 1
9.05275 -16.7903 2.53049 0 884 0.005 0.005 0.005 0.005 0 1
9.05105 -16.795 2.52981 0 884 0 0 0 0 0 0
9.05105 -16.795 2.52981 0 884 0 0 0 0 0 0
-1.9331 5.10124 2.48602 0 885 0 0 0 0 0 0
-1.9331 5.10124 2.48602 0 885 0 0 0 0 0 0
-1.93472 5.1055 2.48809 0.743122 885 0.005 0.005 0.005 0.005 0 1
-2.18085 5.75344 2.80462 0.748236 885 0.005 0.005 0.005 0.005 0 1
-2.66971 6.08124 3.63186 0.419732 885 0.005 0.005 0.005 0.005 0 1
-3.26342 6.09592 3.9806 0.917908 885 0.005 0.005 0.005 0.005 0 1
-3.71424 6.15565 4.4978 1.20287 885 0.005 0.005 0.005 0.005 0 1
-3.89174 5.9022 5.11311 0.572587 885 0.005 0.005 0.005 0.005 0 1
-4.00324 5.31452 5.45455 -0.00769918 885 0.005 0.005 0.005 0.005 0 1
-4.33125 4.71772 5.55763 0.579529 885 0.005 0.005 0.005 0.005 0 1
-4.77252 4.25942 5.82147 1.43425 885 0.005 0.005 0.005 0.005 0 1
-4.94943 3.77061 6.27331 1.06078 885 0.005 0.005 0.005 0.005 0 1
-4.84995 3.13538 6.52021 0.0116693 885 0.005 0.005 0.005 0.005 0 1
-4.86781 2.4508 6.44653 0.056851 885 0.005 0.005 0.005 0.005 0 1
-5.17156 1.83295 6.42742 1.17452 885 0.005 0.005 0.005 0.005 0 1
-5.41725 1.25396 6.70804 1.49057 885 0.005 0.005 0.005 0.005 0 1
-5.32657 0.631779 6.98909 0.442629 885 0.005 0.005 0.005 0.005 0 1
-5.15859 -0.0344404 6.94045 -0.227952 885 0.005 0.005 0.005 0.005 0 1
-5.28411 -0.686792 6.75868 0.612225 885 0.005 0.005 0.005 0.005 0 1
-5.57061 -1.30692 6.84639 1.57037 885 0.005 0.005 0.005 0.005 0 1
-5.60256 -1.92936 7.13939 1.0266 885 0.005 0.005 0.005 0.005 0 1
-5.3798 -2.57647 7.21685 -0.116592 885 0.005 0.005 0.005 0.005 0 1
-5.31908 -3.22969 7.00715 0.0508627 885 0.005 0.005 0.005 0.005 0 1
-5.56126 -3.86719 6.91034 1.25433 885 0.005 0.005 0.005 0.005 0 1
-5.73511 -4.49575 7.13181 1.47516 885 0.005 0.005 0.005 0.005 0 1
-5.57867 -5.13368 7.33897 0.333217 885 0.005 0.005 0.005 0.005 0 1
-5.37783 -5.78126 7.21817 -0.257853 885 0.005 0.005 0.005 0.005 0 1
-5.49025 -6.4246 6.99942 0.688107 885 0.005 0.005 0.005 0.005 0 1
-5.74817 -7.05888 7.07405 1.59232 885 0.005 0.005 0.005 0.005 0 1
-5.73811 -7.69369 7.34096 0.930513 885 0.005 0.005 0.005 0.005 0 1
-5.49225 -8.33608 7.37548 -0.188394 885 0.005 0.005 0.005 0.005 0 1
-5.43551 -8.98047 7.13893 0.107853 885 0.005 0.005 0.005 0.005 0 1
-5.67631 -9.61875 7.04436 1.32691 885 0.005 0.005 0.005 0.005 0 1
-5.82511 -10.2532 7.26728 1.42829 885 0.005 0.005 0.005 0.005 0 1
-5.6447 -10.8915 7.45206 0.237142 885 0.005 0.005 0.005 0.005 0 1
-5.4469 -11.5348 7.30576 -0.250619 885 0.005 0.005 0.005 0.005 0 1
-5.57279 -12.1759 7.08768 0.783626 885 0.005 0.005 0.005 0.005 0 1
-5.82272 -12.8114 7.17746 1.61661 885 0.005 0.005 0.005 0.005 0 1
-5.78925 -13.4469 7.4408 0.853197 885 0.005 0.005 0.005 0.005 0 1
-5.53739 -14.0877 7.45332 -0.231725 885 0.005 0.005 0.005 0.005 0 1
-5.49712 -14.7304 7.20898 0.180378 885 0.005 0.005 0.005 0.005 0 1
-5.74537 -15.368 7.13109 1.40894 885 0.005 0.005 0.005 0.005 0 1
-5.87737 -16.0019 7.36589 0 885 0.005 0.005 0.005 0.005 0 1
-5.87833 -16.0065 7.36759 0 885 0 0 0 0 0 0
-5.87833 -16.0065 7.36759 0 885 0 0 0 0 0 0
-3.70739 4.47776 -1.46453 0 886 0 0 0 0 0 0
-3.70739 4.47776 -1.46453 0 886 0 0 0 0 0 0
-3.71048 4.48149 -1.46575 -0.123575 886 0.005 0.005 0.005 0.005 0 1
-4.18226 5.05009 -1.65211 0.00228348 886 0.005 0.005 0.005 0.005 0 1
-5.14753 5.30189 -1.84088 -0.346795 886 0.005 0.005 0.005 0.005 0 1
-5.65518 5.08973 -2.25515 -0.433875 886 0.005 0.005 0.005 0.005 0 1
-6.20373 5.00964 -2.6638 0.183098 886 0.005 0.005 0.005 0.005 0 1
-6.85313 4.80184 -2.76101 0.442411 886 0.005 0.005 0.005 0.005 0 1
-7.27972 4.26618 -2.6871 -0.257329 886 0.005 0.005 0.005 0.005 0 1
-7.42053 3.60409 -2.81436 -0.801373 886 0.005 0.005 0.005 0.005 0 1
-7.63651 3.0547 -3.16919 -0.168383 886 0.005 0.005 0.005 0.005 0 1
-8.08112 2.5637 -3.35789 0.632405 886 0.005 0.005 0.005 0.005 0 1
-8.41023 1.97354 -3.22458 0.206766 886 0.005 0.005 0.005 0.005 0 1
-8.39388 1.29341 -3.11725 -0.780732 886 0.005 0.005 0.005 0.005 0 1
-8.3248 0.639165 -3.32127 -0.663218 886 0.005 0.005 0.005 0.005 0 1
-8.54533 0.0429865 -3.58623 0.401118 886 0.005 0.005 0.005 0.005 0 1
-8.87103 -0.562272 -3.5418 0.626398 886 0.005 0.005 0.005 0.005 0 1
-8.90735 -1.21407 -3.32216 -0.388972 886 0.005 0.005 0.005 0.005 0 1
-8.71713 -1.87567 -3.3432 -0.950192 886 0.005 0.005 0.005 0.005 0 1
-8.72283 -2.50947 -3.61264 -0.109043 886 0.005 0.005 0.005 0.005 0 1
-9.00394 -3.12985 -3.71535 0.73822 886 0.005 0.005 0.005 0.005 0 1
-9.16448 -3.76705 -3.50915 0.161109 886 0.005 0.005 0.005 0.005 0 1
-8.99873 -4.41944 -3.36329 -0.877695 886 0.005 0.005 0.005 0.005 0 1
-8.83667 -5.06417 -3.54334 -0.642454 886 0.005 0.005 0.005 0.005 0 1
-8.99599 -5.69555 -3.76759 0.480437 886 0.005 0.005 0.005 0.005 0 1
-9.25107 -6.32892 -3.6773 0.612026 886 0.005 0.005 0.005 0.005 0 1
-9.21092 -6.9732 -3.43707 -0.474577 886 0.005 0.005 0.005 0.005 0 1
-8.97334 -7.61916 -3.4607 -0.960251 886 0.005 0.005 0.005 0.005 0 1
-8.96298 -8.25701 -3.72036 -0.0347406 886 0.005 0.005 0.005 0.005 0 1
-9.2229 -8.8907 -3.7925 0.761393 886 0.005 0.005 0.005 0.005 0 1
-9.34207 -9.52987 -3.56537 0.0897275 886 0.005 0.005 0.005 0.005 0 1
-9.14237 -10.1742 -3.42648 -0.925815 886 0.005 0.005 0.005 0.005 0 1
-8.97682 -10.8153 -3.61598 -0.588563 886 0.005 0.005 0.005 0.005 0 1
-9.14105 -11.4506 -3.82513 0.542002 886 0.005 0.005 0.005 0.005 0 1
-9.37919 -12.0868 -3.71147 0.576535 886 0.005 0.005 0.005 0.005 0 1
-9.31083 -12.7286 -3.47106 -0.547453 886 0.005 0.005 0.005 0.005 0 1
-9.0667 -13.3713 -3.51195 -0.95011 886 0.005 0.005 0.005 0.005 0 1
-9.07122 -14.0087 -3.7727 0.0434831 886 0.005 0.005 0.005 0.005 0 1
-9.334 -14.6432 -3.8243 0.778016 886 0.005 0.005 0.005 0.005 0 1
-9.43315 -15.2818 -3.58636 0.0227634 886 0.005 0.005 0.005 0.005 0 1
-9.21958 -15.9247 -3.4621 -0.96334 886 0.005 0.005 0.005 0.005 0 1
-9.06662 -16.5646 -3.66557 -0.530158 886 0.005 0.005 0.005 0.005 0 1
-9.24718 -17.199 -3.8637 0 886 0.005 0.005 0.005 0.005 0 1
-9.24849 -17.2036 -3.86514 0 886 0 0 0 0 0 0
-9.24849 -17.2036 -3.86514 0 886 0 0 0 0 0 0
-4.56271 2.99767 -2.477 0 887 0 0 0 0 0 0
-4.56271 2.99767 -2.477 0 887 0 0 0 0 0 0
-4.56652 3.00016 -2.47907 0.0593509 887 0.005 0.005 0.005 0.005 0 1
-5.14678 3.38053 -2.79408 0.112671 887 0.005 0.005 0.005 0.005 0 1
-6.04973 3.56561 -3.2198 0.19914 887 0.005 0.005 0.005 0.005 0 1
-6.5953 3.16792 -3.35603 -0.240884 887 0.005 0.005 0.005 0.005 0 1
-6.89931 2.67241 -3.7254 -0.224565 887 0.005 0.005 0.005 0.005 0 1
-7.29503 2.33033 -4.17343 0.415457 887 0.005 0.005 0.005 0.005 0 1
-7.84161 1.94584 -4.34006 0.569804 887 0.005 0.005 0.005 0.005 0 1
-8.17339 1.3489 -4.2507 -0.139216 887 0.005 0.005 0.005 0.005 0 1
-8.18285 0.661629 -4.29496 -0.548543 887 0.005 0.005 0.005 0.005 0 1
-8.23886 0.0532383 -4.6129 0.10495 887 0.005 0.005 0.005 0.005 0 1
-8.57375 -0.500091 -4.84965 0.754794 887 0.005 0.005 0.005 0.005 0 1
-8.88145 -1.10805 -4.74946 0.270931 887 0.005 0.005 0.005 0.005 0 1
-8.85099 -1.77757 -4.59057 -0.5651 887 0.005 0.005 0.005 0.005 0 1
-8.69832 -2.43467 -4.72958 -0.33965 887 0.005 0.005 0.005 0.005 0 1
-8.81745 -3.05177 -5.01124 0.595322 887 0.005 0.005 0.005 0.005 0 1
-9.12169 -3.6695 -5.02588 0.667104 887 0.005 0.005 0.005 0.005 0 1
-9.19313 -4.3159 -4.79905 -0.262199 887 0.005 0.005 0.005 0.005 0 1
-8.98588 -4.97088 -4.74999 -0.637618 887 0.005 0.005 0.005 0.005 0 1
-8.90683 -5.60964 -4.99514 0.176469 887 0.005 0.005 0.005 0.005 0 1
-9.13881 -6.23874 -5.15268 0.824543 887 0.005 0.005 0.005 0.005 0 1
-9.33517 -6.87641 -4.98193 0.210483 887 0.005 0.005 0.005 0.005 0 1
-9.20118 -7.52304 -4.78651 -0.63957 887 0.005 0.005 0.005 0.005 0 1
-8.98754 -8.16636 -4.90851 -0.304573 887 0.005 0.005 0.005 0.005 0 1
-9.07398 -8.80273 -5.15745 0.66099 887 0.005 0.005 0.005 0.005 0 1
-9.33475 -9.43939 -5.12785 0.639245 887 0.005 0.005 0.005 0.005 0 1
-9.34923 -10.0809 -4.87752 -0.339063 887 0.005 0.005 0.005 0.005 0 1
-9.10477 -10.7231 -4.83175 -0.637209 887 0.005 0.005 0.005 0.005 0 1
-9.0193 -11.3624 -5.07356 0.242548 887 0.005 0.005 0.005 0.005 0 1
-9.24371 -12.0002 -5.20432 0.833648 887 0.005 0.005 0.005 0.005 0 1
-9.40966 -12.6396 -5.00963 0.140304 887 0.005 0.005 0.005 0.005 0 1
-9.24435 -13.2802 -4.81806 -0.678086 887 0.005 0.005 0.005 0.005 0 1
-9.02723 -13.9197 -4.95298 -0.256248 887 0.005 0.005 0.005 0.005 0 1
-9.12381 -14.5582 -5.19262 0.704244 887 0.005 0.005 0.005 0.005 0 1
-9.37532 -15.1971 -5.13947 0.596497 887 0.005 0.005 0.005 0.005 0 1
-9.3632 -15.8368 -4.88445 -0.405335 887 0.005 0.005 0.005 0.005 0 1
-9.10821 -16.4759 -4.85613 -0.628035 887 0.005 0.005 0.005 0.005 0 1
-9.03663 -17.1141 -5.10494 0.300502 887 0.005 0.005 0.005 0.005 0 1
-9.26872 -17.7525 -5.21859 0.83109 887 0.005 0.005 0.005 0.005 0 1
-9.41742 -18.3918 -5.00997 0.0722606 887 0.005 0.005 0.005 0.005 0 1
-9.23421 -19.031 -4.83035 -0.714173 887 0.005 0.005 0.005 0.005 0 1
-9.02435 -19.6688 -4.98339 0 887 0.005 0.005 0.005 0.005 0 1
-9.02283 -19.6734 -4.9845 0 887 0 0 0 0 0 0
-9.02283 -19.6734 -4.9845 0 887 0 0 0 0 0 0
4.05649 2.99767 3.24018 0 888 0 0 0 0 0 0
4.05649 2.99767 3.24018 0 888 0 0 0 0 0 0
4.05988 3.00017 3.24288 1.05368 888 0.005 0.005 0.005 0.005 0 1
4.57576 3.38053 3.65496 1.04253 888 0.005 0.005 0.005 0.005 0 1
5.44411 3.28374 4.17211 0.781964 888 0.005 0.005 0.005 0.005 0 1
5.75141 3.04059 4.7385 1.22154 888 0.005 0.005 0.005 0.005 0 1
6.23131 2.88623 5.20776 1.39016 888 0.005 0.005 0.005 0.005 0 1
6.78711 2.50953 5.36117 0.821334 888 0.005 0.005 0.005 0.005 0 1
7.04787 1.87248 5.38494 0.417894 888 0.005 0.005 0.005 0.005 0 1
7.06164 1.2263 5.62295 0.970446 888 0.005 0.005 0.005 0.005 0 1
7.24006 0.69731 6.02632 1.60823 888 0.005 0.005 0.005 0.005 0 1
7.63916 0.163535 6.20002 1.20756 888 0.005 0.005 0.005 0.005 0 1
7.86591 -0.474566 6.07436 0.386576 888 0.005 0.005 0.005 0.005 0 1
7.76386 -1.15455 6.03448 0.533504 888 0.005 0.005 0.005 0.005 0 1
7.68837 -1.78696 6.29664 1.44131 888 0.005 0.005 0.005 0.005 0 1
7.92122 -2.38541 6.54567 1.58614 888 0.005 0.005 0.005 0.005 0 1
8.19703 -3.0112 6.46429 0.698576 888 0.005 0.005 0.005 0.005 0 1
8.15627 -3.67039 6.26874 0.254857 888 0.005 0.005 0.005 0.005 0 1
7.94972 -4.32212 6.35222 1.0069 888 0.005 0.005 0.005 0.005 0 1
7.9927 -4.9501 6.63176 1.70745 888 0.005 0.005 0.005 0.005 0 1
8.27168 -5.57749 6.68601 1.1716 888 0.005 0.005 0.005 0.005 0 1
8.36848 -6.22167 6.46239 0.289016 888 0.005 0.005 0.005 0.005 0 1
8.16114 -6.87129 6.36598 0.533141 888 0.005 0.005 0.005 0.005 0 1
8.02958 -7.51084 6.58526 1.50246 888 0.005 0.005 0.005 0.005 0 1
8.22271 -8.14351 6.77689 1.57472 888 0.005 0.005 0.005 0.005 0 1
8.44255 -8.78169 6.63963 0.620996 888 0.005 0.005 0.005 0.005 0 1
8.34238 -9.42631 6.41871 0.236244 888 0.005 0.005 0.005 0.005 0 1
8.10712 -10.0688 6.49731 1.06212 888 0.005 0.005 0.005 0.005 0 1
8.14541 -10.7056 6.7566 1.72338 888 0.005 0.005 0.005 0.005 0 1
8.40748 -11.3424 6.77396 1.1074 888 0.005 0.005 0.005 0.005 0 1
8.46784 -11.9833 6.52906 0.243931 888 0.005 0.005 0.005 0.005 0 1
8.23621 -12.6255 6.43874 0.574918 888 0.005 0.005 0.005 0.005 0 1
8.1091 -13.2647 6.66151 1.5511 888 0.005 0.005 0.005 0.005 0 1
8.30835 -13.9015 6.83191 1.54058 888 0.005 0.005 0.005 0.005 0 1
8.51028 -14.5401 6.67103 0.556467 888 0.005 0.005 0.005 0.005 0 1
8.38555 -15.1812 6.45234 0.245919 888 0.005 0.005 0.005 0.005 0 1
8.15015 -15.8215 6.54635 1.12893 888 0.005 0.005 0.005 0.005 0 1
8.20494 -16.459 6.80111 1.73532 888 0.005 0.005 0.005 0.005 0 1
8.46691 -17.0959 6.79582 1.04888 888 0.005 0.005 0.005 0.005 0 1
8.50663 -17.7354 6.54321 0.215657 888 0.005 0.005 0.005 0.005 0 1
8.26538 -18.3763 6.46906 0.631802 888 0.005 0.005 0.005 0.005 0 1
8.15412 -19.0148 6.70177 1.60705 888 0.005 0.005 0.005 0.005 0 1
8.36748 -19.6509 6.85725 0 888 0.005 0.005 0.005 0.005 0 1
8.36903 -19.6555 6.85837 0 888 0 0 0 0 0 0
8.36903 -19.6555 6.85837 0 888 0 0 0 0 0 0
4.73561 3.4443 1.28482 0 889 0 0 0 0 0 0
4.73561 3.4443 1.28482 0 889 0 0 0 0 0 0
4.73956 3.44717 1.28589 0.836667 889 0.005 0.005 0.005 0.005 0 1
5.3419 3.88432 1.44931 0.799955 889 0.005 0.005 0.005 0.005 0 1
6.33627 3.82392 1.64533 0.614383 889 0.005 0.005 0.005 0.005 0 1
6.88873 3.72852 2.04532 1.07866 889 0.005 0.005 0.005 0.005 0 1
7.5548 3.61405 2.17792 1.13028 889 0.005 0.005 0.005 0.005 0 1
8.07808 3.18149 2.06199 0.49255 889 0.005 0.005 0.005 0.005 0 1
8.29116 2.5267 2.07756 0.219258 889 0.005 0.005 0.005 0.005 0 1
8.48047 1.9354 2.37573 0.902746 889 0.005 0.005 0.005 0.005 0 1
8.90525 1.44785 2.61285 1.43072 889 0.005 0.005 0.005 0.005 0 1
9.30827 0.89798 2.51492 0.848666 889 0.005 0.005 0.005 0.005 0 1
9.37246 0.234267 2.34246 0.0847997 889 0.005 0.005 0.005 0.005 0 1
9.28191 -0.438057 2.46145 0.445104 889 0.005 0.005 0.005 0.005 0 1
9.43625 -1.04803 2.74165 1.36418 889 0.005 0.005 0.005 0.005 0 1
9.78156 -1.6433 2.76847 1.28911 889 0.005 0.005 0.005 0.005 0 1
9.90444 -2.28195 2.54164 0.318133 889 0.005 0.005 0.005 0.005 0 1
9.73377 -2.94593 2.47562 0.0711517 889 0.005 0.005 0.005 0.005 0 1
9.66648 -3.58948 2.71163 0.974896 889 0.005 0.005 0.005 0.005 0 1
9.91017 -4.21108 2.88064 1.52425 889 0.005 0.005 0.005 0.005 0 1
10.136 -4.84181 2.72087 0.784767 889 0.005 0.005 0.005 0.005 0 1
10.0321 -5.49129 2.51642 -0.0111386 889 0.005 0.005 0.005 0.005 0 1
9.82701 -6.13992 2.62367 0.466176 889 0.005 0.005 0.005 0.005 0 1
9.91102 -6.77507 2.87657 1.42695 889 0.005 0.005 0.005 0.005 0 1
10.1848 -7.40686 2.86297 1.25868 889 0.005 0.005 0.005 0.005 0 1
10.226 -8.04785 2.61442 0.237728 889 0.005 0.005 0.005 0.005 0 1
9.99574 -8.69412 2.55368 0.0704695 889 0.005 0.005 0.005 0.005 0 1
9.9051 -9.33484 2.78939 1.03782 889 0.005 0.005 0.005 0.005 0 1
10.1297 -9.96975 2.93394 1.52596 889 0.005 0.005 0.005 0.005 0 1
10.3156 -10.607 2.75052 0.711201 889 0.005 0.005 0.005 0.005 0 1
10.1713 -11.2497 2.54962 -0.0425318 889 0.005 0.005 0.005 0.005 0 1
9.95465 -11.8921 2.6708 0.523572 889 0.005 0.005 0.005 0.005 0 1
10.0439 -12.5297 2.91557 1.46857 889 0.005 0.005 0.005 0.005 0 1
10.3055 -13.1657 2.87794 1.21014 889 0.005 0.005 0.005 0.005 0 1
10.3168 -13.8054 2.62296 0.178095 889 0.005 0.005 0.005 0.005 0 1
10.0722 -14.4476 2.57853 0.0992277 889 0.005 0.005 0.005 0.005 0 1
9.99316 -15.0873 2.82126 1.10828 889 0.005 0.005 0.005 0.005 0 1
10.2251 -15.7234 2.94776 1.52318 889 0.005 0.005 0.005 0.005 0 1
10.3938 -16.3605 2.74787 0.647154 889 0.005 0.005 0.005 0.005 0 1
10.2301 -17.0014 2.55612 -0.0557607 889 0.005 0.005 0.005 0.005 0 1
10.0196 -17.6425 2.69375 0.59318 889 0.005 0.005 0.005 0.005 0 1
10.1267 -18.2797 2.93206 1.51523 889 0.005 0.005 0.005 0.005 0 1
10.3861 -18.915 2.87351 0 889 0.005 0.005 0.005 0.005 0 1
10.388 -18.9196 2.87308 0 889 0 0 0 0 0 0
10.388 -18.9196 2.87308 0 889 0 0 0 0 0 0
-0.832076 3.44671 4.83402 0 890 0 0 0 0 0 0
-0.832076 3.44671 4.83402 0 890 0 0 0 0 0 0
-0.832771 3.44959 4.83805 -0.0257268 890 0.005 0.005 0.005 0.005 0 1
-0.938603 3.88706 5.4529 -0.127717 890 0.005 0.005 0.005 0.005 0 1
-1.25388 4.09149 6.39608 0.268841 890 0.005 0.005 0.005 0.005 0 1
-1.11908 3.96128 7.0588 0.163501 890 0.005 0.005 0.005 0.005 0 1
-1.09852 3.44036 7.50892 -0.408275 890 0.005 0.005 0.005 0.005 0 1
-1.37312 2.91003 7.85202 -0.416961 890 0.005 0.005 0.005 0.005 0 1
-1.6298 2.52268 8.36039 0.320018 890 0.005 0.005 0.005 0.005 0 1
-1.55622 2.06833 8.87276 0.547327 890 0.005 0.005 0.005 0.005 0 1
-1.36938 1.43312 9.06247 -0.212076 890 0.005 0.005 0.005 0.005 0 1
-1.45393 0.749819 9.04432 -0.714745 890 0.005 0.005 0.005 0.005 0 1
-1.73633 0.146896 9.22062 -0.0596684 890 0.005 0.005 0.005 0.005 0 1
-1.7968 -0.421384 9.60504 0.685098 890 0.005 0.005 0.005 0.005 0 1
-1.57786 -1.04558 9.79696 0.239782 890 0.005 0.005 0.005 0.005 0 1
-1.47896 -1.71537 9.6705 -0.676314 890 0.005 0.005 0.005 0.005 0 1
-1.69454 -2.3653 9.59644 -0.524473 890 0.005 0.005 0.005 0.005 0 1
-1.88846 -2.9825 9.83275 0.462664 890 0.005 0.005 0.005 0.005 0 1
-1.7556 -3.60632 10.0926 0.630236 890 0.005 0.005 0.005 0.005 0 1
-1.53374 -4.25535 10.0297 -0.318305 890 0.005 0.005 0.005 0.005 0 1
-1.60646 -4.90756 9.82066 -0.799107 890 0.005 0.005 0.005 0.005 0 1
-1.86394 -5.54406 9.87453 -0.00468125 890 0.005 0.005 0.005 0.005 0 1
-1.88476 -6.17447 10.1511 0.744859 890 0.005 0.005 0.005 0.005 0 1
-1.64139 -6.81417 10.2286 0.185807 890 0.005 0.005 0.005 0.005 0 1
-1.5464 -7.46042 10.0104 -0.748963 890 0.005 0.005 0.005 0.005 0 1
-1.76418 -8.10227 9.8881 -0.499192 890 0.005 0.005 0.005 0.005 0 1
-1.93561 -8.73835 10.0891 0.52304 890 0.005 0.005 0.005 0.005 0 1
-1.77772 -9.3759 10.2963 0.607733 890 0.005 0.005 0.005 0.005 0 1
-1.55705 -10.0176 10.1786 -0.392632 890 0.005 0.005 0.005 0.005 0 1
-1.64503 -10.6593 9.94442 -0.805569 890 0.005 0.005 0.005 0.005 0 1
-1.89754 -11.2981 9.99495 0.0580277 890 0.005 0.005 0.005 0.005 0 1
-1.89483 -11.9361 10.2543 0.759905 890 0.005 0.005 0.005 0.005 0 1
-1.64287 -12.5757 10.2958 0.12069 890 0.005 0.005 0.005 0.005 0 1
-1.56396 -13.216 10.0547 -0.792478 890 0.005 0.005 0.005 0.005 0 1
-1.79189 -13.8552 9.9373 -0.455198 890 0.005 0.005 0.005 0.005 0 1
-1.94788 -14.4937 10.1431 0.572479 890 0.005 0.005 0.005 0.005 0 1
-1.77257 -15.1328 10.3308 0.572822 890 0.005 0.005 0.005 0.005 0 1
-1.55986 -15.7722 10.1883 -0.460616 890 0.005 0.005 0.005 0.005 0 1
-1.66663 -16.4109 9.95397 -0.802775 890 0.005 0.005 0.005 0.005 0 1
-1.91673 -17.0492 10.0197 0.119444 890 0.005 0.005 0.005 0.005 0 1
-1.89425 -17.688 10.2761 0.767841 890 0.005 0.005 0.005 0.005 0 1
-1.63813 -18.3271 10.295 0.0552777 890 0.005 0.005 0.005 0.005 0 1
-1.57775 -18.9654 10.0437 0 890 0.005 0.005 0.005 0.005 0 1
-1.57731 -18.97 10.0418 0 890 0 0 0 0 0 0
-1.57731 -18.97 10.0418 0 890 0 0 0 0 0 0
1.45976 4.28159 -3.93409 0 891 0 0 0 0 0 0
1.45976 4.28159 -3.93409 0 891 0 0 0 0 0 0
1.46098 4.28516 -3.93737 0.66681 891 0.005 0.005 0.005 0.005 0 1
1.64671 4.8288 -4.43792 0.697261 891 0.005 0.005 0.005 0.005 0 1
2.01871 5.24156 -5.28763 0.772515 891 0.005 0.005 0.005 0.005 0 1
2.02193 5.06114 -5.9523 0.289993 891 0.005 0.005 0.005 0.005 0 1
2.24025 4.58139 -6.39562 0.291155 891 0.005 0.005 0.005 0.005 0 1
2.65907 4.20495 -6.79217 1.00049 891 0.005 0.005 0.005 0.005 0 1
2.90228 3.90159 -7.36065 1.2027 891 0.005 0.005 0.005 0.005 0 1
2.82407 3.4105 -7.83719 0.421635 891 0.005 0.005 0.005 0.005 0 1
2.75676 2.73804 -7.97004 -0.0721767 891 0.005 0.005 0.005 0.005 0 1
2.98674 2.08955 -8.00097 0.634546 891 0.005 0.005 0.005 0.005 0 1
3.28266 1.53634 -8.28517 1.39685 891 0.005 0.005 0.005 0.005 0 1
3.27067 0.968341 -8.67453 0.894502 891 0.005 0.005 0.005 0.005 0 1
3.06858 0.317993 -8.77732 -0.0677693 891 0.005 0.005 0.005 0.005 0 1
3.09185 -0.355048 -8.63294 0.131865 891 0.005 0.005 0.005 0.005 0 1
3.36956 -0.984798 -8.6603 1.18959 891 0.005 0.005 0.005 0.005 0 1
3.49228 -1.59131 -8.96255 1.33195 891 0.005 0.005 0.005 0.005 0 1
3.30019 -2.2241 -9.15522 0.301076 891 0.005 0.005 0.005 0.005 0 1
3.15106 -2.88197 -9.01619 -0.181343 891 0.005 0.005 0.005 0.005 0 1
3.32574 -3.5298 -8.86081 0.698797 891 0.005 0.005 0.005 0.005 0 1
3.55932 -4.15784 -9.02016 1.47977 891 0.005 0.005 0.005 0.005 0 1
3.48362 -4.78782 -9.28785 0.84503 891 0.005 0.005 0.005 0.005 0 1
3.24371 -5.43315 -9.26704 -0.145746 891 0.005 0.005 0.005 0.005 0 1
3.25653 -6.08147 -9.03501 0.161343 891 0.005 0.005 0.005 0.005 0 1
3.51536 -6.71948 -9.01645 1.26008 891 0.005 0.005 0.005 0.005 0 1
3.60005 -7.35218 -9.27499 1.31359 891 0.005 0.005 0.005 0.005 0 1
3.3796 -7.99119 -9.4068 0.226785 891 0.005 0.005 0.005 0.005 0 1
3.23147 -8.63618 -9.21591 -0.183634 891 0.005 0.005 0.005 0.005 0 1
3.41205 -9.27781 -9.04248 0.766525 891 0.005 0.005 0.005 0.005 0 1
3.62791 -9.91359 -9.19593 1.49582 891 0.005 0.005 0.005 0.005 0 1
3.52552 -10.5503 -9.43781 0.778601 891 0.005 0.005 0.005 0.005 0 1
3.28224 -11.192 -9.37989 -0.187549 891 0.005 0.005 0.005 0.005 0 1
3.31083 -11.8344 -9.133 0.208853 891 0.005 0.005 0.005 0.005 0 1
3.57019 -12.4723 -9.12285 1.30899 891 0.005 0.005 0.005 0.005 0 1
3.63345 -13.1082 -9.37946 1.2738 891 0.005 0.005 0.005 0.005 0 1
3.40049 -13.7475 -9.48634 0.155141 891 0.005 0.005 0.005 0.005 0 1
3.26608 -14.3894 -9.27589 -0.180197 891 0.005 0.005 0.005 0.005 0 1
3.46102 -15.0287 -9.10993 0.828299 891 0.005 0.005 0.005 0.005 0 1
3.66635 -15.6647 -9.27623 1.49805 891 0.005 0.005 0.005 0.005 0 1
3.54528 -16.302 -9.50756 0.704406 891 0.005 0.005 0.005 0.005 0 1
3.30605 -16.9428 -9.42739 -0.23425 891 0.005 0.005 0.005 0.005 0 1
3.35468 -17.5831 -9.17857 0 891 0.005 0.005 0.005 0.005 0 1
3.35503 -17.5878 -9.17676 0 891 0 0 0 0 0 0
3.35503 -17.5878 -9.17676 0 891 0 0 0 0 0 0
3.02691 5.04513 1.15076 0 892 0 0 0 0 0 0
3.02691 5.04513 1.15076 0 892 0 0 0 0 0 0
3.02944 5.04934 1.15172 -0.429936 892 0.005 0.005 0.005 0.005 0 1
3.41479 5.69016 1.29823 -0.55071 892 0.005 0.005 0.005 0.005 0 1
4.16399 6.20953 1.7451 -0.122655 892 0.005 0.005 0.005 0.005 0 1
4.85029 6.26686 1.74422 -0.0398477 892 0.005 0.005 0.005 0.005 0 1
5.40406 5.8698 1.84454 -0.683189 892 0.005 0.005 0.005 0.005 0 1
5.77793 5.42164 2.21025 -0.983701 892 0.005 0.005 0.005 0.005 0 1
6.27481 5.12501 2.58371 -0.224518 892 0.005 0.005 0.005 0.005 0 1
6.84555 4.74306 2.63587 0.348952 892 0.005 0.005 0.005 0.005 0 1
7.13847 4.13198 2.51276 -0.327036 892 0.005 0.005 0.005 0.005 0 1
7.16328 3.45024 2.60758 -1.1857 892 0.005 0.005 0.005 0.005 0 1
7.31714 2.86346 2.93378 -0.73332 892 0.005 0.005 0.005 0.005 0 1
7.713 2.32086 3.08622 0.323885 892 0.005 0.005 0.005 0.005 0 1
7.97988 1.70712 2.9236 0.188555 892 0.005 0.005 0.005 0.005 0 1
7.90758 1.03202 2.8077 -0.94955 892 0.005 0.005 0.005 0.005 0 1
7.81209 0.380192 3.00872 -1.18609 892 0.005 0.005 0.005 0.005 0 1
8.01967 -0.228298 3.25571 -0.101345 892 0.005 0.005 0.005 0.005 0 1
8.31967 -0.84456 3.18839 0.492022 892 0.005 0.005 0.005 0.005 0 1
8.32314 -1.49539 2.96312 -0.418945 892 0.005 0.005 0.005 0.005 0 1
8.11768 -2.15215 2.9926 -1.3128 892 0.005 0.005 0.005 0.005 0 1
8.12627 -2.78687 3.25974 -0.694051 892 0.005 0.005 0.005 0.005 0 1
8.40293 -3.41187 3.34462 0.411876 892 0.005 0.005 0.005 0.005 0 1
8.54278 -4.05048 3.12786 0.145674 892 0.005 0.005 0.005 0.005 0 1
8.3611 -4.70049 2.99067 -1.05095 892 0.005 0.005 0.005 0.005 0 1
8.20335 -5.3438 3.17951 -1.17783 892 0.005 0.005 0.005 0.005 0 1
8.37064 -5.97646 3.39412 -0.021477 892 0.005 0.005 0.005 0.005 0 1
8.61615 -6.61131 3.28875 0.48684 892 0.005 0.005 0.005 0.005 0 1
8.55841 -7.25499 3.05068 -0.512278 892 0.005 0.005 0.005 0.005 0 1
8.31882 -7.89957 3.08798 -1.34573 892 0.005 0.005 0.005 0.005 0 1
8.32049 -8.53715 3.34839 -0.62437 892 0.005 0.005 0.005 0.005 0 1
8.58195 -9.17177 3.40572 0.451712 892 0.005 0.005 0.005 0.005 0 1
8.68562 -9.81127 3.17195 0.0778546 892 0.005 0.005 0.005 0.005 0 1
8.47552 -10.4547 3.04483 -1.12466 892 0.005 0.005 0.005 0.005 0 1
8.31851 -11.0949 3.24428 -1.14672 892 0.005 0.005 0.005 0.005 0 1
8.49246 -11.7305 3.44454 0.0500433 892 0.005 0.005 0.005 0.005 0 1
8.72166 -12.3675 3.3177 0.468357 892 0.005 0.005 0.005 0.005 0 1
8.63702 -13.0089 3.08175 -0.598646 892 0.005 0.005 0.005 0.005 0 1
8.39251 -13.6504 3.13724 -1.37044 892 0.005 0.005 0.005 0.005 0 1
8.40904 -14.2875 3.39849 -0.556123 892 0.005 0.005 0.005 0.005 0 1
8.67168 -14.923 3.43588 0.488588 892 0.005 0.005 0.005 0.005 0 1
8.754 -15.5622 3.19308 0.0159512 892 0.005 0.005 0.005 0.005 0 1
8.52961 -16.2037 3.08174 0 892 0.005 0.005 0.005 0.005 0 1
8.52798 -16.2084 3.08093 0 892 0 0 0 0 0 0
8.52798 -16.2084 3.08093 0 892 0 0 0 0 0 0
-3.19952 2.99767 4.08865 0 893 0 0 0 0 0 0
-3.19952 2.99767 4.08865 0 893 0 0 0 0 0 0
-3.20219 3.00016 4.09206 -0.0130685 893 0.005 0.005 0.005 0.005 0 1
-3.60908 3.38054 4.61203 -0.113077 893 0.005 0.005 0.005 0.005 0 1
-4.34281 3.5085 5.30201 0.269101 893 0.005 0.005 0.005 0.005 0 1
-4.53346 3.34242 5.94264 0.169766 893 0.005 0.005 0.005 0.005 0 1
-4.71003 2.80032 6.32908 -0.382226 893 0.005 0.005 0.005 0.005 0 1
-5.09829 2.2527 6.48318 -0.394957 893 0.005 0.005 0.005 0.005 0 1
-5.55753 1.84604 6.79637 0.313026 893 0.005 0.005 0.005 0.005 0 1
-5.73028 1.37927 7.27244 0.53708 893 0.005 0.005 0.005 0.005 0 1
-5.64701 0.741698 7.51934 -0.189986 893 0.005 0.005 0.005 0.005 0 1
-5.70271 0.0582649 7.45444 -0.677999 893 0.005 0.005 0.005 0.005 0 1
-6.02818 -0.548611 7.4667 -0.054087 893 0.005 0.005 0.005 0.005 0 1
-6.26145 -1.1215 7.76961 0.664958 893 0.005 0.005 0.005 0.005 0 1
-6.15765 -1.74666 8.03938 0.244331 893 0.005 0.005 0.005 0.005 0 1
-6.00577 -2.41515 7.97281 -0.637072 893 0.005 0.005 0.005 0.005 0 1
-6.1554 -3.06513 7.80101 -0.499339 893 0.005 0.005 0.005 0.005 0 1
-6.43671 -3.68393 7.91199 0.447513 893 0.005 0.005 0.005 0.005 0 1
-6.44366 -4.3087 8.20178 0.616432 893 0.005 0.005 0.005 0.005 0 1
-6.21707 -4.95718 8.25222 -0.290902 893 0.005 0.005 0.005 0.005 0 1
-6.17818 -5.60875 8.03258 -0.759545 893 0.005 0.005 0.005 0.005 0 1
-6.42833 -6.24565 7.95425 -0.00290539 893 0.005 0.005 0.005 0.005 0 1
-6.57902 -6.87673 8.18532 0.722128 893 0.005 0.005 0.005 0.005 0 1
-6.40229 -7.5164 8.36983 0.193057 893 0.005 0.005 0.005 0.005 0 1
-6.2129 -8.16227 8.22387 -0.707316 893 0.005 0.005 0.005 0.005 0 1
-6.34379 -8.80401 8.0109 -0.476603 893 0.005 0.005 0.005 0.005 0 1
-6.5903 -9.44042 8.10338 0.504865 893 0.005 0.005 0.005 0.005 0 1
-6.55161 -10.0782 8.36066 0.595176 893 0.005 0.005 0.005 0.005 0 1
-6.30111 -10.7197 8.3637 -0.361792 893 0.005 0.005 0.005 0.005 0 1
-6.26443 -11.3612 8.11569 -0.767305 893 0.005 0.005 0.005 0.005 0 1
-6.5096 -12 8.03752 0.0562326 893 0.005 0.005 0.005 0.005 0 1
-6.63214 -12.6382 8.26555 0.736477 893 0.005 0.005 0.005 0.005 0 1
-6.43123 -13.2779 8.42318 0.131226 893 0.005 0.005 0.005 0.005 0 1
-6.2453 -13.918 8.24987 -0.749997 893 0.005 0.005 0.005 0.005 0 1
-6.38794 -14.5571 8.03669 -0.435361 893 0.005 0.005 0.005 0.005 0 1
-6.62353 -15.1959 8.14116 0.552107 893 0.005 0.005 0.005 0.005 0 1
-6.56046 -15.8349 8.38981 0.562322 893 0.005 0.005 0.005 0.005 0 1
-6.30512 -16.4743 8.3675 -0.42764 893 0.005 0.005 0.005 0.005 0 1
-6.28516 -17.1128 8.11047 -0.765227 893 0.005 0.005 0.005 0.005 0 1
-6.5355 -17.7513 8.04679 0.114758 893 0.005 0.005 0.005 0.005 0 1
-6.63947 -18.3902 8.28192 0.744831 893 0.005 0.005 0.005 0.005 0 1
-6.4241 -19.0292 8.42186 0.0684413 893 0.005 0.005 0.005 0.005 0 1
-6.24961 -19.6674 8.23067 0 893 0.005 0.005 0.005 0.005 0 1
-6.24835 -19.6721 8.22928 0 893 0 0 0 0 0 0
-6.24835 -19.6721 8.22928 0 893 0 0 0 0 0 0
4.05955 3.70776 -2.39009 0 894 0 0 0 0 0 0
4.05955 3.70776 -2.39009 0 894 0 0 0 0 0 0
4.06294 3.71085 -2.39208 -0.986594 894 0.005 0.005 0.005 0.005 0 1
4.57931 4.18152 -2.69612 -1.06539 894 0.005 0.005 0.005 0.005 0 1
5.51068 4.39402 -3.03988 -0.945306 894 0.005 0.005 0.005 0.005 0 1
5.9539 4.34441 -3.56469 -0.503663 894 0.005 0.005 0.005 0.005 0 1
6.28308 3.86557 -3.93446 -0.74494 894 0.005 0.005 0.005 0.005 0 1
6.68714 3.30924 -3.97465 -1.41728 894 0.005 0.005 0.005 0.005 0 1
7.23825 2.90426 -4.05611 -1.31105 894 0.005 0.005 0.005 0.005 0 1
7.64154 2.47763 -4.41626 -0.481542 894 0.005 0.005 0.005 0.005 0 1
7.70753 1.87018 -4.73412 -0.346314 894 0.005 0.005 0.005 0.005 0 1
7.71411 1.18189 -4.70967 -1.20805 894 0.005 0.005 0.005 0.005 0 1
7.9864 0.563287 -4.57717 -1.63796 894 0.005 0.005 0.005 0.005 0 1
8.35112 -0.00225927 -4.72386 -0.867704 894 0.005 0.005 0.005 0.005 0 1
8.42196 -0.613237 -5.03379 -0.169694 894 0.005 0.005 0.005 0.005 0 1
8.26017 -1.28004 -5.09368 -0.742793 894 0.005 0.005 0.005 0.005 0 1
8.28356 -1.93707 -4.88838 -1.64538 894 0.005 0.005 0.005 0.005 0 1
8.57834 -2.55701 -4.83247 -1.36161 894 0.005 0.005 0.005 0.005 0 1
8.75362 -3.17593 -5.07858 -0.349048 894 0.005 0.005 0.005 0.005 0 1
8.60013 -3.82145 -5.2634 -0.308774 894 0.005 0.005 0.005 0.005 0 1
8.44298 -4.47597 -5.11766 -1.32055 894 0.005 0.005 0.005 0.005 0 1
8.60327 -5.1151 -4.91734 -1.69251 894 0.005 0.005 0.005 0.005 0 1
8.86243 -5.74407 -5.02531 -0.798534 894 0.005 0.005 0.005 0.005 0 1
8.82807 -6.38122 -5.2846 -0.128338 894 0.005 0.005 0.005 0.005 0 1
8.59169 -7.02813 -5.2814 -0.812983 894 0.005 0.005 0.005 0.005 0 1
8.57718 -7.67186 -5.03695 -1.70632 894 0.005 0.005 0.005 0.005 0 1
8.83428 -8.30765 -4.97346 -1.31567 894 0.005 0.005 0.005 0.005 0 1
8.95491 -8.94344 -5.20917 -0.287515 894 0.005 0.005 0.005 0.005 0 1
8.75554 -9.585 -5.36064 -0.344304 894 0.005 0.005 0.005 0.005 0 1
8.58467 -10.2282 -5.18317 -1.39381 894 0.005 0.005 0.005 0.005 0 1
8.74182 -10.8673 -4.98008 -1.67908 894 0.005 0.005 0.005 0.005 0 1
8.97701 -11.5039 -5.09724 -0.721318 894 0.005 0.005 0.005 0.005 0 1
8.90801 -12.1429 -5.34489 -0.116244 894 0.005 0.005 0.005 0.005 0 1
8.65905 -12.7843 -5.31415 -0.880679 894 0.005 0.005 0.005 0.005 0 1
8.65445 -13.4244 -5.06006 -1.73472 894 0.005 0.005 0.005 0.005 0 1
8.91008 -14.062 -5.01047 -1.24941 894 0.005 0.005 0.005 0.005 0 1
9.00632 -14.6998 -5.25175 -0.229728 894 0.005 0.005 0.005 0.005 0 1
8.78867 -15.3397 -5.38398 -0.378859 894 0.005 0.005 0.005 0.005 0 1
8.6263 -15.9798 -5.18836 -1.45079 894 0.005 0.005 0.005 0.005 0 1
8.79636 -16.618 -4.99321 -1.6522 894 0.005 0.005 0.005 0.005 0 1
9.02071 -17.2555 -5.1263 -0.641714 894 0.005 0.005 0.005 0.005 0 1
8.92986 -17.8941 -5.36736 -0.102051 894 0.005 0.005 0.005 0.005 0 1
8.6799 -18.5338 -5.31516 0 894 0.005 0.005 0.005 0.005 0 1
8.67808 -18.5384 -5.31478 0 894 0 0 0 0 0 0
8.67808 -18.5384 -5.31478 0 894 0 0 0 0 0 0
-3.4985 2.99767 3.83594 0 895 0 0 0 0 0 0
-3.4985 2.99767 3.83594 0 895 0 0 0 0 0 0
-3.50142 3.00016 3.83914 -0.0133646 895 0.005 0.005 0.005 0.005 0 1
-3.94634 3.38054 4.32698 -0.113355 895 0.005 0.005 0.005 0.005 0 1
-4.72995 3.50854 4.95973 0.268847 895 0.005 0.005 0.005 0.005 0 1
-4.96831 3.34241 5.58416 0.169471 895 0.005 0.005 0.005 0.005 0 1
-5.17354 2.80028 5.95614 -0.382525 895 0.005 0.005 0.005 0.005 0 1
-5.57236 2.25271 6.08055 -0.395152 895 0.005 0.005 0.005 0.005 0 1
-6.05388 1.84607 6.35831 0.312811 895 0.005 0.005 0.005 0.005 0 1
-6.26196 1.37927 6.82001 0.5368 895 0.005 0.005 0.005 0.005 0 1
-6.19751 0.741684 7.07243 -0.190336 895 0.005 0.005 0.005 0.005 0 1
-6.24823 0.0582676 7.00349 -0.678246 895 0.005 0.005 0.005 0.005 0 1
-6.57373 -0.548596 6.99124 -0.054231 895 0.005 0.005 0.005 0.005 0 1
-6.82911 -1.12149 7.27576 0.664737 895 0.005 0.005 0.005 0.005 0 1
-6.74588 -1.74666 7.55254 0.243956 895 0.005 0.005 0.005 0.005 0 1
-6.58946 -2.41515 7.49754 -0.637404 895 0.005 0.005 0.005 0.005 0 1
-6.72579 -3.06512 7.31497 -0.499425 895 0.005 0.005 0.005 0.005 0 1
-7.01462 -3.68394 7.40451 0.447364 895 0.005 0.005 0.005 0.005 0 1
-7.04332 -4.30871 7.69297 0.615991 895 0.005 0.005 0.005 0.005 0 1
-6.82123 -4.95713 7.76024 -0.291067 895 0.005 0.005 0.005 0.005 0 1
-6.76592 -5.60872 7.54417 -0.759731 895 0.005 0.005 0.005 0.005 0 1
-7.00947 -6.2457 7.44723 -0.00301842 895 0.005 0.005 0.005 0.005 0 1
-7.1771 -6.87675 7.66635 0.721871 895 0.005 0.005 0.005 0.005 0 1
-7.01474 -7.51639 7.86361 0.192846 895 0.005 0.005 0.005 0.005 0 1
-6.81489 -8.16227 7.7323 -0.707791 895 0.005 0.005 0.005 0.005 0 1
-6.92947 -8.80401 7.51007 -0.476683 895 0.005 0.005 0.005 0.005 0 1
-7.18221 -9.44043 7.58379 0.504845 895 0.005 0.005 0.005 0.005 0 1
-7.16292 -10.0782 7.84327 0.59479 895 0.005 0.005 0.005 0.005 0 1
-6.91336 -10.7198 7.86509 -0.362539 895 0.005 0.005 0.005 0.005 0 1
-6.85828 -11.3612 7.62048 -0.767234 895 0.005 0.005 0.005 0.005 0 1
-7.09679 -12.0001 7.52415 0.0561933 895 0.005 0.005 0.005 0.005 0 1
-7.23609 -12.6383 7.74234 0.736476 895 0.005 0.005 0.005 0.005 0 1
-7.04757 -13.2779 7.91469 0.130542 895 0.005 0.005 0.005 0.005 0 1
-6.84919 -13.918 7.75573 -0.750427 895 0.005 0.005 0.005 0.005 0 1
-6.97546 -14.5572 7.53242 -0.43543 895 0.005 0.005 0.005 0.005 0 1
-7.21823 -15.1958 7.61897 0.552069 895 0.005 0.005 0.005 0.005 0 1
-7.17391 -15.835 7.87164 0.56187 895 0.005 0.005 0.005 0.005 0 1
-6.91771 -16.4742 7.86856 -0.427814 895 0.005 0.005 0.005 0.005 0 1
-6.87844 -17.1128 7.61376 -0.765631 895 0.005 0.005 0.005 0.005 0 1
-7.12336 -17.7512 7.53145 0.114745 895 0.005 0.005 0.005 0.005 0 1
-7.24467 -18.3901 7.75813 0.744642 895 0.005 0.005 0.005 0.005 0 1
-7.04043 -19.0291 7.91387 0.0682695 895 0.005 0.005 0.005 0.005 0 1
-6.85202 -19.6674 7.73635 0 895 0.005 0.005 0.005 0.005 0 1
-6.85065 -19.672 7.73506 0 895 0 0 0 0 0 0
-6.85065 -19.672 7.73506 0 895 0 0 0 0 0 0
2.28454 4.24623 -3.56235 0 896 0 0 0 0 0 0
2.28454 4.24623 -3.56235 0 896 0 0 0 0 0 0
2.28645 4.24977 -3.56532 0.732032 896 0.005 0.005 0.005 0.005 0 1
2.57711 4.78892 -4.01857 0.736604 896 0.005 0.005 0.005 0.005 0 1
3.15916 5.18079 -4.75234 0.87203 896 0.005 0.005 0.005 0.005 0 1
3.29351 5.04571 -5.41419 0.387474 896 0.005 0.005 0.005 0.005 0 1
3.55142 4.55877 -5.8274 0.277264 896 0.005 0.005 0.005 0.005 0 1
4.02144 4.1345 -6.09839 0.957285 896 0.005 0.005 0.005 0.005 0 1
4.42141 3.82053 -6.56293 1.29547 896 0.005 0.005 0.005 0.005 0 1
4.48674 3.35741 -7.06851 0.593694 896 0.005 0.005 0.005 0.005 0 1
4.42324 2.69871 -7.25947 -0.029376 896 0.005 0.005 0.005 0.005 0 1
4.60101 2.03402 -7.22819 0.54505 896 0.005 0.005 0.005 0.005 0 1
4.95771 1.46677 -7.38745 1.40638 896 0.005 0.005 0.005 0.005 0 1
5.08524 0.905862 -7.76625 1.07709 896 0.005 0.005 0.005 0.005 0 1
4.92189 0.266633 -7.96393 0.0686558 896 0.005 0.005 0.005 0.005 0 1
4.86173 -0.408205 -7.84011 0.0735702 896 0.005 0.005 0.005 0.005 0 1
5.10921 -1.04599 -7.76005 1.11329 896 0.005 0.005 0.005 0.005 0 1
5.33692 -1.65323 -7.99198 1.45111 896 0.005 0.005 0.005 0.005 0 1
5.23479 -2.28049 -8.25745 0.501445 896 0.005 0.005 0.005 0.005 0 1
5.03178 -2.93641 -8.20356 -0.152267 896 0.005 0.005 0.005 0.005 0 1
5.11618 -3.58759 -7.99567 0.586939 896 0.005 0.005 0.005 0.005 0 1
5.38966 -4.2177 -8.04606 1.49494 896 0.005 0.005 0.005 0.005 0 1
5.43049 -4.84573 -8.32576 1.04387 896 0.005 0.005 0.005 0.005 0 1
5.20056 -5.48894 -8.41407 -0.0160716 896 0.005 0.005 0.005 0.005 0 1
5.10965 -6.13823 -8.20309 0.0831533 896 0.005 0.005 0.005 0.005 0 1
5.33291 -6.77795 -8.07963 1.1803 896 0.005 0.005 0.005 0.005 0 1
5.5175 -7.41026 -8.28076 1.44332 896 0.005 0.005 0.005 0.005 0 1
5.37248 -8.04776 -8.49731 0.424916 896 0.005 0.005 0.005 0.005 0 1
5.15542 -8.69271 -8.391 -0.173501 896 0.005 0.005 0.005 0.005 0 1
5.24312 -9.3355 -8.15994 0.64403 896 0.005 0.005 0.005 0.005 0 1
5.5027 -9.97161 -8.20925 1.51747 896 0.005 0.005 0.005 0.005 0 1
5.51238 -10.6071 -8.47424 0.980947 896 0.005 0.005 0.005 0.005 0 1
5.26683 -11.2484 -8.5283 -0.0722256 896 0.005 0.005 0.005 0.005 0 1
5.18637 -11.8915 -8.29533 0.114089 896 0.005 0.005 0.005 0.005 0 1
5.41591 -12.5301 -8.17775 1.23032 896 0.005 0.005 0.005 0.005 0 1
5.58214 -13.1655 -8.38519 1.41137 896 0.005 0.005 0.005 0.005 0 1
5.41657 -13.8039 -8.58356 0.347221 896 0.005 0.005 0.005 0.005 0 1
5.20463 -14.446 -8.45298 -0.187563 896 0.005 0.005 0.005 0.005 0 1
5.30957 -15.0863 -8.22201 0.699396 896 0.005 0.005 0.005 0.005 0 1
5.56577 -15.7223 -8.28692 1.52913 896 0.005 0.005 0.005 0.005 0 1
5.55466 -16.3587 -8.55009 0.910084 896 0.005 0.005 0.005 0.005 0 1
5.30366 -16.9992 -8.58203 -0.131465 896 0.005 0.005 0.005 0.005 0 1
5.24094 -17.6403 -8.33861 0 896 0.005 0.005 0.005 0.005 0 1
5.24049 -17.645 -8.33684 0 896 0 0 0 0 0 0
5.24049 -17.645 -8.33684 0 896 0 0 0 0 0 0
1.21926 3.61808 -4.62199 0 897 0 0 0 0 0 0
1.21926 3.61808 -4.62199 0 897 0 0 0 0 0 0
1.22028 3.62109 -4.62585 -0.0298626 897 0.005 0.005 0.005 0.005 0 1
1.37537 4.08036 -5.21376 -0.132598 897 0.005 0.005 0.005 0.005 0 1
1.76948 4.31505 -6.1195 0.269508 897 0.005 0.005 0.005 0.005 0 1
1.69362 4.19966 -6.79423 0.161743 897 0.005 0.005 0.005 0.005 0 1
1.71592 3.68779 -7.25453 -0.417778 897 0.005 0.005 0.005 0.005 0 1
2.02234 3.16463 -7.5813 -0.424707 897 0.005 0.005 0.005 0.005 0 1
2.32332 2.78519 -8.07099 0.323728 897 0.005 0.005 0.005 0.005 0 1
2.29532 2.33605 -8.59238 0.552174 897 0.005 0.005 0.005 0.005 0 1
2.12752 1.70197 -8.80254 -0.220172 897 0.005 0.005 0.005 0.005 0 1
2.21231 1.01875 -8.78204 -0.728394 897 0.005 0.005 0.005 0.005 0 1
2.51003 0.417388 -8.93727 -0.0608663 897 0.005 0.005 0.005 0.005 0 1
2.60375 -0.149014 -9.3178 0.694023 897 0.005 0.005 0.005 0.005 0 1
2.40278 -0.772678 -9.52981 0.238688 897 0.005 0.005 0.005 0.005 0 1
2.29449 -1.44301 -9.41416 -0.69106 897 0.005 0.005 0.005 0.005 0 1
2.50378 -2.09297 -9.32387 -0.533539 897 0.005 0.005 0.005 0.005 0 1
2.71746 -2.7095 -9.54437 0.469717 897 0.005 0.005 0.005 0.005 0 1
2.60738 -3.33291 -9.81555 0.636513 897 0.005 0.005 0.005 0.005 0 1
2.38145 -3.98215 -9.77252 -0.328573 897 0.005 0.005 0.005 0.005 0 1
2.43669 -4.63457 -9.55889 -0.813917 897 0.005 0.005 0.005 0.005 0 1
2.69809 -5.27094 -9.5917 -0.00439007 897 0.005 0.005 0.005 0.005 0 1
2.74234 -5.9011 -9.86616 0.754937 897 0.005 0.005 0.005 0.005 0 1
2.50656 -6.54072 -9.96429 0.183559 897 0.005 0.005 0.005 0.005 0 1
2.39375 -7.18719 -9.75537 -0.764642 897 0.005 0.005 0.005 0.005 0 1
2.6006 -7.82912 -9.61552 -0.507258 897 0.005 0.005 0.005 0.005 0 1
2.78848 -8.46502 -9.80175 0.531271 897 0.005 0.005 0.005 0.005 0 1
2.64867 -9.1025 -10.0219 0.613437 897 0.005 0.005 0.005 0.005 0 1
2.41903 -9.74429 -9.92346 -0.404016 897 0.005 0.005 0.005 0.005 0 1
2.48709 -10.3861 -9.68294 -0.819854 897 0.005 0.005 0.005 0.005 0 1
2.74304 -11.0248 -9.71234 0.0596936 897 0.005 0.005 0.005 0.005 0 1
2.76224 -11.6627 -9.97127 0.77 897 0.005 0.005 0.005 0.005 0 1
2.51472 -12.3023 -10.034 0.117317 897 0.005 0.005 0.005 0.005 0 1
2.41587 -12.9427 -9.80056 -0.808729 897 0.005 0.005 0.005 0.005 0 1
2.63324 -13.582 -9.6647 -0.461933 897 0.005 0.005 0.005 0.005 0 1
2.80597 -14.2204 -9.85673 0.581483 897 0.005 0.005 0.005 0.005 0 1
2.64716 -14.8594 -10.0587 0.577671 897 0.005 0.005 0.005 0.005 0 1
2.42329 -15.4988 -9.93481 -0.472973 897 0.005 0.005 0.005 0.005 0 1
2.51005 -16.1377 -9.69259 -0.816632 897 0.005 0.005 0.005 0.005 0 1
2.7648 -16.776 -9.73711 0.122216 897 0.005 0.005 0.005 0.005 0 1
2.76406 -17.4146 -9.99479 0.777778 897 0.005 0.005 0.005 0.005 0 1
2.51048 -18.0537 -10.0353 0.0507338 897 0.005 0.005 0.005 0.005 0 1
2.42922 -18.6921 -9.79011 0 897 0.005 0.005 0.005 0.005 0 1
2.42863 -18.6968 -9.78833 0 897 0 0 0 0 0 0
2.42863 -18.6968 -9.78833 0 897 0 0 0 0 0 0
1.26295 4.88013 -3.24488 0 898 0 0 0 0 0 0
1.26295 4.88013 -3.24488 0 898 0 0 0 0 0 0
1.264 4.88419 -3.24759 0.844982 898 0.005 0.005 0.005 0.005 0 1
1.42476 5.504 -3.66062 0.859273 898 0.005 0.005 0.005 0.005 0 1
1.82445 6.02637 -4.434 0.96407 898 0.005 0.005 0.005 0.005 0 1
1.82995 5.96797 -5.12021 0.452979 898 0.005 0.005 0.005 0.005 0 1
2.01929 5.53407 -5.62046 0.395649 898 0.005 0.005 0.005 0.005 0 1
2.43957 5.15288 -6.01087 1.13645 898 0.005 0.005 0.005 0.005 0 1
2.74644 4.88162 -6.56457 1.42671 898 0.005 0.005 0.005 0.005 0 1
2.71903 4.44444 -7.09606 0.635969 898 0.005 0.005 0.005 0.005 0 1
2.6305 3.79196 -7.2981 0.0339283 898 0.005 0.005 0.005 0.005 0 1
2.8206 3.13054 -7.32572 0.717782 898 0.005 0.005 0.005 0.005 0 1
3.14479 2.57366 -7.56883 1.59239 898 0.005 0.005 0.005 0.005 0 1
3.19891 2.02228 -7.978 1.15275 898 0.005 0.005 0.005 0.005 0 1
3.00432 1.38447 -8.15055 0.0923684 898 0.005 0.005 0.005 0.005 0 1
2.97459 0.707485 -8.02739 0.19361 898 0.005 0.005 0.005 0.005 0 1
3.23646 0.0708133 -8.00647 1.32046 898 0.005 0.005 0.005 0.005 0 1
3.41551 -0.532838 -8.28558 1.58759 898 0.005 0.005 0.005 0.005 0 1
3.26434 -1.1586 -8.53035 0.527947 898 0.005 0.005 0.005 0.005 0 1
3.07822 -1.81571 -8.44134 -0.0906491 898 0.005 0.005 0.005 0.005 0 1
3.20428 -2.46767 -8.25843 0.771557 898 0.005 0.005 0.005 0.005 0 1
3.46334 -3.09672 -8.36581 1.68559 898 0.005 0.005 0.005 0.005 0 1
3.44822 -3.72365 -8.65056 1.11408 898 0.005 0.005 0.005 0.005 0 1
3.20625 -4.36707 -8.69308 0.0102809 898 0.005 0.005 0.005 0.005 0 1
3.16036 -5.01705 -8.47002 0.21435 898 0.005 0.005 0.005 0.005 0 1
3.40448 -5.65675 -8.39554 1.39141 898 0.005 0.005 0.005 0.005 0 1
3.54547 -6.28844 -8.63101 1.57734 898 0.005 0.005 0.005 0.005 0 1
3.36031 -6.92568 -8.81514 0.454902 898 0.005 0.005 0.005 0.005 0 1
3.16942 -7.57101 -8.66838 -0.101665 898 0.005 0.005 0.005 0.005 0 1
3.30214 -8.21402 -8.46057 0.832836 898 0.005 0.005 0.005 0.005 0 1
3.54681 -8.84987 -8.56178 1.70489 898 0.005 0.005 0.005 0.005 0 1
3.5033 -9.48518 -8.82402 1.05066 898 0.005 0.005 0.005 0.005 0 1
3.25208 -10.1265 -8.82823 -0.0398279 898 0.005 0.005 0.005 0.005 0 1
3.2204 -10.7698 -8.58441 0.250165 898 0.005 0.005 0.005 0.005 0 1
3.46907 -11.4085 -8.51593 1.43833 898 0.005 0.005 0.005 0.005 0 1
3.59032 -12.0436 -8.75295 1.53973 898 0.005 0.005 0.005 0.005 0 1
3.38842 -12.6819 -8.91451 0.376075 898 0.005 0.005 0.005 0.005 0 1
3.20727 -13.3243 -8.74446 -0.112878 898 0.005 0.005 0.005 0.005 0 1
3.35666 -13.9646 -8.53967 0.889118 898 0.005 0.005 0.005 0.005 0 1
3.59475 -14.6005 -8.65523 1.71048 898 0.005 0.005 0.005 0.005 0 1
3.53113 -15.2367 -8.91119 0.972821 898 0.005 0.005 0.005 0.005 0 1
3.27903 -15.8773 -8.89243 -0.100705 898 0.005 0.005 0.005 0.005 0 1
3.2666 -16.5186 -8.64174 0 898 0.005 0.005 0.005 0.005 0 1
3.26651 -16.5233 -8.63992 0 898 0 0 0 0 0 0
3.26651 -16.5233 -8.63992 0 898 0 0 0 0 0 0
-0.757477 4.38518 4.017 0 899 0 0 0 0 0 0
-0.757477 4.38518 4.017 0 899 0 0 0 0 0 0
-0.75811 4.38884 4.02035 -0.215877 899 0.005 0.005 0.005 0.005 0 1
-0.854495 4.94567 4.53149 -0.262763 899 0.005 0.005 0.005 0.005 0 1
-1.15907 5.10022 5.4876 -0.39647 899 0.005 0.005 0.005 0.005 0 1
-1.31102 5.26641 6.13843 0.123055 899 0.005 0.005 0.005 0.005 0 1
-1.18945 5.08541 6.79174 0.160108 899 0.005 0.005 0.005 0.005 0 1
-1.14778 4.53386 7.20214 -0.543702 899 0.005 0.005 0.005 0.005 0 1
-1.40534 3.96467 7.49208 -0.810978 899 0.005 0.005 0.005 0.005 0 1
-1.68098 3.53954 7.9586 -0.0357248 899 0.005 0.005 0.005 0.005 0 1
-1.63345 3.07228 8.46236 0.504365 899 0.005 0.005 0.005 0.005 0 1
-1.43957 2.44044 8.65618 -0.173817 899 0.005 0.005 0.005 0.005 0 1
-1.49856 1.75523 8.61873 -0.980661 899 0.005 0.005 0.005 0.005 0 1
-1.78176 1.14299 8.75778 -0.527527 899 0.005 0.005 0.005 0.005 0 1
-1.87108 0.570405 9.13004 0.466046 899 0.005 0.005 0.005 0.005 0 1
-1.66327 -0.0509154 9.34244 0.315782 899 0.005 0.005 0.005 0.005 0 1
-1.54201 -0.718886 9.22645 -0.754416 899 0.005 0.005 0.005 0.005 0 1
-1.74132 -1.37107 9.12949 -0.955725 899 0.005 0.005 0.005 0.005 0 1
-1.95491 -1.98948 9.34449 0.0655282 899 0.005 0.005 0.005 0.005 0 1
